# .PCD v0.7 - Point Cloud Data file format
VERSION 0.7
FIELDS x y z rgb
SIZE 4 4 4 4
TYPE F F F F
COUNT 1 1 1 1
WIDTH 1005
HEIGHT 1
VIEWPOINT 0 0 0 1 0 0 0
POINTS 1005
DATA ascii
0.54578817 -0.15952468 0.64296043 4.4150038e-39
0.52963918 -0.080749005 0.64801085 9.0013192e-39
0.53314871 -0.083274186 0.64593744 9.2811473e-39
0.51846117 -0.070534006 0.64506662 8.8270116e-39
0.52399266 -0.075476252 0.64366138 9.2894303e-39
0.50973785 -0.060487669 0.64423656 8.8266515e-39
0.51405388 -0.065492183 0.64470339 8.7337356e-39
0.50573373 -0.054997023 0.64412218 9.0070813e-39
0.4859232 -0.048762344 0.6418705 1.0879084e-38
0.49876696 -0.042715028 0.64532048 9.1911124e-39
0.5020268 -0.046560906 0.64244545 9.3787449e-39
0.49818063 -0.037293568 0.64538884 9.1896719e-39
0.50255346 -0.032461695 0.64582497 9.000959e-39
0.54373932 -0.032709531 0.64596885 9.8390028e-39
0.50734419 -0.027466523 0.64537948 7.8989331e-39
0.51231343 -0.022816634 0.6458993 6.7047115e-39
0.54638618 -0.020446042 0.6443553 8.7243721e-39
0.51741117 -0.018306235 0.64478391 6.5214006e-39
0.52351457 -0.012958412 0.64455718 6.7047115e-39
0.52874917 -0.0083102835 0.6452024 8.4488656e-39
0.53380811 -0.0038581358 0.6451968 8.6325366e-39
0.53849727 0.00028457618 0.64498717 8.7243721e-39
0.54494721 0.0061293575 0.64499974 8.6325366e-39
0.55483061 0.015033256 0.64515716 8.7243721e-39
0.5600481 0.019539407 0.64243555 8.7243721e-39
0.56580704 0.024746543 0.64507222 8.7243721e-39
0.57105166 0.02943182 0.64529371 8.7250924e-39
0.57575011 0.033388 0.64438486 8.8176482e-39
0.58151174 0.038641095 0.6464197 8.7243721e-39
0.58686155 0.042894378 0.64623863 8.7247323e-39
0.59122652 0.046323285 0.64602274 8.8176482e-39
0.58528459 0.062242139 0.64300209 1.0030234e-38
0.4558084 0.19763918 0.64303488 6.5509582e-39
0.46147847 0.19477089 0.64476544 7.4721886e-39
0.44737008 0.20593584 0.64462787 6.1821757e-39
0.45105571 0.20104387 0.64631164 6.2743727e-39
0.42588195 0.21435156 0.64328045 4.6061675e-39
0.43889207 0.21826266 0.64485747 6.1821757e-39
0.44247058 0.2132106 0.64539838 6.1821757e-39
0.43414515 0.22487471 0.64509213 6.1821757e-39
0.45103046 0.22502841 0.64046907 6.3643935e-39
0.42851499 0.23538657 0.64491266 6.1821757e-39
0.43025649 0.23069686 0.64697689 6.1821757e-39
0.4289028 0.24307378 0.64384198 6.0896171e-39
0.43124303 0.24723692 0.64500242 6.5473345e-39
0.43465734 0.25124767 0.64560574 6.5462499e-39
0.29669914 0.54624784 0.64803416 4.1326169e-39
0.27663827 0.56106842 0.64550799 4.1326169e-39
0.28488258 0.56108546 0.64491934 4.1326169e-39
0.29494721 0.56110632 0.64512253 4.1326169e-39
0.30058068 0.56111801 0.64538336 4.1326169e-39
0.26928669 -0.55894887 0.65845662 1.1164145e-41
0.27520275 -0.55893666 0.65521735 1.1164145e-41
0.28503051 -0.55891639 0.65496814 1.1164145e-41
0.2949762 -0.55889583 0.65508246 1.1164145e-41
0.30026817 -0.55888498 0.65572017 1.1164145e-41
0.51831388 -0.32378197 0.6526801 3.2287528e-39
0.52091819 -0.32448778 0.65668774 3.0447175e-39
0.5188182 -0.31611398 0.65135115 3.5057082e-39
0.5212732 -0.3147406 0.65512878 3.2287528e-39
0.49853134 -0.30227387 0.65875602 2.8599577e-39
0.51657486 -0.30498254 0.65169263 2.8603206e-39
0.52173054 -0.30519885 0.65427965 3.0447175e-39
0.51426357 -0.2913532 0.6525405 8.5742202e-39
0.52377117 -0.29506662 0.65501189 2.8599577e-39
0.52530831 -0.2847372 0.65516275 2.8599577e-39
0.52631438 -0.27526078 0.65494394 7.8373894e-39
0.52752995 -0.26514697 0.65520948 9.9556833e-39
0.52882874 -0.2548413 0.65474033 9.5872623e-39
0.53002596 -0.25041342 0.65955245 8.0181331e-39
0.52962226 -0.24760617 0.65328181 9.5876224e-39
0.53037214 -0.24392445 0.65609765 8.4801931e-39
0.53128898 -0.23490281 0.65493184 8.8486155e-39
0.53229719 -0.22490679 0.65503287 9.1255611e-39
0.5330478 -0.21498363 0.65556842 9.5861805e-39
0.53359663 -0.20518635 0.65481865 1.1432257e-38
0.53494149 -0.19476978 0.65525216 8.8511714e-39
0.53707713 -0.18485631 0.65496063 2.9517932e-39
0.53928655 -0.17789501 0.6551134 2.8599577e-39
0.54129684 -0.17313205 0.65534794 2.8599577e-39
0.54416311 -0.16462037 0.65483135 2.8599577e-39
0.54901838 -0.15899739 0.65602708 2.8599577e-39
0.55233413 -0.15704256 0.65820289 2.8599577e-39
0.53346568 -0.082386144 0.6516152 9.18463e-39
0.51911801 -0.071438149 0.6549542 8.7243721e-39
0.52348351 -0.075606361 0.65418965 8.8162076e-39
0.50994092 -0.061192479 0.65751159 8.7243721e-39
0.5140208 -0.065801606 0.65530568 8.7243721e-39
0.50490254 -0.055328708 0.65522683 8.7243721e-39
0.48931563 -0.041759886 0.65491188 1.0960833e-38
0.49835044 -0.044396386 0.65525246 9.6625359e-39
0.49922562 -0.039206803 0.6504119 9.2771858e-39
0.50299716 -0.034805331 0.65416169 8.0815237e-39
0.50807595 -0.02741969 0.65562809 6.4284847e-39
0.51261407 -0.022507522 0.65495801 6.3366492e-39
0.51807892 -0.018036785 0.65403402 6.7958267e-39
0.52391779 -0.012930864 0.65449101 7.8060172e-39
0.5344466 -0.014672697 0.65866154 7.6227063e-39
0.51093656 -0.0082312012 0.6561588 1.0694693e-38
0.52872205 -0.0083286064 0.65559363 8.7243721e-39
0.53381932 -0.0034964576 0.65460169 8.7243721e-39
0.53892863 0.0012459601 0.65516359 8.7243721e-39
0.54475826 0.0064834552 0.6553238 8.7243721e-39
0.55515635 0.015708638 0.65487796 8.7243721e-39
0.56475276 0.024164105 0.65511411 8.7243721e-39
0.57057589 0.029373193 0.65528733 8.7243721e-39
0.57593805 0.034175996 0.65489608 8.7243721e-39
0.58228612 0.037568033 0.65445077 8.9120046e-39
0.5729481 0.049001418 0.65640849 8.7243721e-39
0.58640063 0.043392248 0.6549316 8.7243721e-39
0.4549779 0.1969427 0.65549612 6.9186561e-39
0.46496031 0.19452186 0.65484309 7.5604046e-39
0.47024816 0.19517222 0.6597929 6.6380854e-39
0.44747603 0.20639823 0.65479124 6.3662068e-39
0.45090964 0.20115851 0.65479618 6.826822e-39
0.41013125 0.21498635 0.6569165 6.0870794e-39
0.43910402 0.21841224 0.65488338 6.1821757e-39
0.4425658 0.21362072 0.65501708 6.1821757e-39
0.43444127 0.22479434 0.65466857 6.5505967e-39
0.42901698 0.23651476 0.65337855 6.2743699e-39
0.430792 0.23246445 0.65570134 6.826822e-39
0.42843956 0.24290594 0.65529108 6.4580381e-39
0.43179423 0.24823932 0.65620363 5.9019636e-39
0.44484472 0.24859461 0.65389729 6.6304945e-39
0.43568721 0.25161108 0.65364438 6.6380854e-39
0.26930609 0.56105316 0.65840149 4.1326169e-39
0.27519408 0.56106544 0.65512359 4.1326169e-39
0.2849721 0.56108552 0.655065 4.1326169e-39
0.29480565 0.56110585 0.65506178 4.1326169e-39
0.30059907 0.56111789 0.65487725 4.1326169e-39
0.2680645 -0.55895138 0.66565067 1.1164145e-41
0.2749522 -0.55893725 0.66499358 1.1164145e-41
0.28495467 -0.55891657 0.66493732 1.1164145e-41
0.29501337 -0.55889577 0.6650849 1.1164145e-41
0.30024976 -0.55888498 0.66357744 1.1164145e-41
0.52261651 -0.33046162 0.66464919 3.1365516e-39
0.51962149 -0.32420132 0.66606665 2.3986068e-39
0.522443 -0.32960314 0.66753238 3.1365516e-39
0.51981288 -0.31617683 0.66486067 2.8599577e-39
0.52013099 -0.31335694 0.66749251 2.8599577e-39
0.51989818 -0.30897561 0.66319603 2.8599577e-39
0.52134597 -0.30426848 0.66552097 2.8599577e-39
0.508165 -0.29723328 0.66020858 2.8599577e-39
0.5241183 -0.29517648 0.66526306 2.8599577e-39
0.51019889 -0.28741831 0.66464227 2.5833652e-39
0.52650148 -0.28533018 0.66500449 4.5191007e-39
0.5364002 -0.28389773 0.66441053 6.9276595e-39
0.52766263 -0.2747536 0.66467583 1.0879091e-38
0.52882189 -0.26522413 0.66515225 7.1865648e-39
0.5296014 -0.25716573 0.6633243 6.817062e-39
0.53045857 -0.25319934 0.66641825 5.892219e-39
0.531416 -0.24469618 0.66492116 5.9844146e-39
0.53257406 -0.23510388 0.66509879 5.9844161e-39
0.53386009 -0.22502992 0.66486752 6.4468361e-39
0.53472793 -0.21499774 0.66538173 6.8174221e-39
0.55491513 -0.21133378 0.66591644 2.7763856e-39
0.53525925 -0.20503943 0.66528094 8.5713055e-39
0.53603715 -0.19525048 0.66505474 1.0879093e-38
0.53811198 -0.18490459 0.66425282 3.0443461e-39
0.53957611 -0.17873627 0.66532344 2.8599577e-39
0.54118741 -0.17366777 0.66521633 2.8599577e-39
0.54463065 -0.16494763 0.66537338 2.8599577e-39
0.54904985 -0.1585768 0.66622394 2.8599577e-39
0.55395436 -0.15706797 0.66363627 2.9521603e-39
0.56238139 -0.15817666 0.66467214 3.1365544e-39
0.52893591 -0.081289291 0.66504383 8.7243721e-39
0.53139025 -0.083688475 0.66559774 8.8165678e-39
0.51899832 -0.071017608 0.66579115 8.7243721e-39
0.5237509 -0.075986177 0.66445053 8.7243721e-39
0.50957996 -0.060689371 0.66470635 8.7243721e-39
0.51434851 -0.065462112 0.66527575 9.0949553e-39
0.52168345 -0.060088895 0.66517097 8.9123647e-39
0.50430888 -0.05472561 0.66482687 8.9998786e-39
0.49812526 -0.045062922 0.6642428 9.8285589e-39
0.50049275 -0.046581309 0.66778326 1.0101905e-38
0.49852669 -0.037238427 0.66647255 9.0917141e-39
0.50244683 -0.031868216 0.66723269 6.612876e-39
0.51319629 -0.032950349 0.66078359 9.2829479e-39
0.53835964 -0.036250569 0.66952044 4.5126155e-39
0.5066185 -0.02720248 0.66611111 6.7958267e-39
0.512586 -0.022174664 0.66435331 6.4284847e-39
0.51770502 -0.017678443 0.6649822 7.4386752e-39
0.5233075 -0.012607216 0.66537386 8.7243721e-39
0.50434875 -0.0082882456 0.66372049 7.3486404e-39
0.52870047 -0.0077345097 0.66480583 8.7243721e-39
0.53371066 -0.0032347105 0.66502792 8.7243721e-39
0.53874528 0.001299348 0.66527033 8.7243721e-39
0.54456466 0.0065572695 0.66444093 8.7243721e-39
0.54845315 0.010032314 0.66604072 8.7243721e-39
0.55487746 0.015586045 0.66536599 8.7243721e-39
0.55239147 0.026986958 0.66769481 1.4013736e-38
0.56521726 0.024704851 0.66447014 8.7243721e-39
0.57024467 0.029317334 0.66494066 8.7243721e-39
0.54576302 0.032107078 0.66377097 8.7243721e-39
0.57555413 0.034158431 0.66541034 8.7243721e-39
0.58147287 0.03921283 0.66631383 8.9080431e-39
0.58655506 0.04296425 0.66515428 9.0917141e-39
0.59288102 0.045552611 0.66771901 9.5508916e-39
0.44277355 0.18434204 0.66621184 2.7698892e-39
0.45600724 0.19671656 0.66498137 7.0112105e-39
0.46087629 0.19404137 0.66793597 9.0373353e-39
0.44745848 0.20621108 0.66467798 7.563664e-39
0.45101228 0.20122769 0.66513932 6.9190163e-39
0.43899098 0.21852592 0.66483611 2.9567986e-39
0.44261017 0.2134378 0.6651929 3.1419073e-39
0.43423283 0.22488883 0.66519684 5.6290103e-39
0.42884308 0.23631145 0.66569722 7.1030474e-39
0.43044716 0.23094547 0.66489124 8.1164734e-39
0.42911592 0.24240652 0.66517967 6.1821743e-39
0.43185207 0.24656698 0.66442364 5.4417128e-39
0.42782566 0.25393346 0.66735548 5.7049215e-39
0.43719912 0.25345612 0.66444558 5.7150416e-39
0.29137462 0.55643517 0.66341591 4.1326169e-39
0.26802796 0.56105042 0.66563123 4.1326169e-39
0.27488837 0.56114203 0.66494912 4.1326169e-39
0.28504193 0.56108564 0.66509593 4.1326169e-39
0.2950635 0.56110632 0.66509295 4.1326169e-39
0.30064836 0.56111789 0.66463286 4.1326169e-39
0.26632553 -0.55895495 0.67533636 1.1164145e-41
0.27502355 -0.55893713 0.67500961 1.1164145e-41
0.2849513 -0.55891651 0.67504507 1.1164145e-41
0.2949706 -0.55889595 0.67494035 1.1164145e-41
0.30026552 -0.55888498 0.67426729 1.1164145e-41
0.50608462 -0.33408117 0.6719597 3.3205659e-39
0.51990193 -0.3242836 0.67162293 2.5830022e-39
0.52061486 -0.32388443 0.67618537 2.5830037e-39
0.52033269 -0.31505018 0.67450976 2.8599577e-39
0.52178323 -0.30498305 0.67478263 2.8599577e-39
0.52478254 -0.29487062 0.67491466 2.8599577e-39
0.52732575 -0.28515202 0.6749019 1.0049701e-38
0.52862918 -0.27524269 0.67512 1.1616649e-38
0.52952695 -0.26615962 0.67340165 7.923411e-39
0.53097808 -0.26305273 0.6766203 7.3695141e-39
0.53115022 -0.2551198 0.67498547 5.8918589e-39
0.53254157 -0.24538624 0.67489511 5.983693e-39
0.53406513 -0.23497254 0.67491597 5.8914988e-39
0.5353356 -0.22471718 0.67483252 6.0762501e-39
0.53629899 -0.21520583 0.67480916 5.8918575e-39
0.5192011 -0.20877309 0.67202604 1.0879084e-38
0.53686506 -0.20512149 0.67490071 7.7390183e-39
0.53753161 -0.19482261 0.67541039 1.1616649e-38
0.53838438 -0.18526204 0.6745187 3.9659339e-39
0.54030734 -0.18173289 0.67866522 2.8599577e-39
0.56104112 -0.18840101 0.67219311 1.0233721e-38
0.53964889 -0.17911786 0.67134398 2.8599577e-39
0.54236859 -0.17501168 0.67543828 2.8599577e-39
0.54664171 -0.16511767 0.67512816 2.8599577e-39
0.54946923 -0.1587806 0.67510939 2.8599577e-39
0.55045915 -0.15676095 0.67586941 2.8599577e-39
0.52893418 -0.081226975 0.67378038 9.2847486e-39
0.53226519 -0.083829388 0.67485231 9.7518476e-39
0.51749498 -0.07227926 0.67426986 8.8223299e-39
0.52400714 -0.076417081 0.67546707 9.6596534e-39
0.5351221 -0.070763625 0.67109799 1.0786889e-38
0.50876701 -0.060115881 0.67247653 8.7243721e-39
0.51381773 -0.06560006 0.67517048 8.8273718e-39
0.50426781 -0.05485848 0.67512602 9.3830665e-39
0.49694374 -0.044495851 0.67685765 9.8566479e-39
0.4985795 -0.038010571 0.67409235 5.6977622e-39
0.50264341 -0.033300184 0.67414576 6.7958267e-39
0.50774646 -0.027012933 0.67393529 6.2448137e-39
0.51274806 -0.021817064 0.67464823 7.2550042e-39
0.51733994 -0.017261911 0.67570823 8.9112843e-39
0.52277309 -0.012736353 0.67466104 8.7243721e-39
0.52767414 -0.0083671343 0.67464739 8.7243721e-39
0.5335933 -0.0030216048 0.67564458 8.7243721e-39
0.53884256 0.001671451 0.67447054 8.7243721e-39
0.54388601 0.0062143407 0.67474949 8.7243721e-39
0.54880911 0.010652609 0.67640686 8.7243721e-39
0.5548858 0.015865471 0.67469925 8.7243721e-39
0.56471097 0.024414297 0.67465985 8.7243721e-39
0.57017517 0.029258456 0.67541522 8.7243721e-39
0.57520151 0.033983488 0.67523664 8.7243721e-39
0.58061653 0.039068941 0.67644358 8.7243721e-39
0.58326542 0.041522644 0.67829084 8.7243721e-39
0.45586419 0.19691129 0.67519057 7.5636598e-39
0.4640989 0.19409901 0.67353016 7.8380733e-39
0.44751325 0.20638186 0.67519712 6.3658467e-39
0.45108283 0.20141688 0.67502457 6.3665656e-39
0.438963 0.21869324 0.67513728 2.4904255e-39
0.44259593 0.21377626 0.67478693 3.1347075e-39
0.46977887 0.21357137 0.67370117 6.1821757e-39
0.4296779 0.22767511 0.67812604 4.4170763e-39
0.43435368 0.22513609 0.6750102 4.3364835e-39
0.42970425 0.23564097 0.67293417 6.1821757e-39
0.43052223 0.23339958 0.67563397 6.1821757e-39
0.42942193 0.24307433 0.67513686 6.1818142e-39
0.43202624 0.24809219 0.67631322 6.1789135e-39
0.43626061 0.25204223 0.67511147 6.454413e-39
0.26016748 0.55748463 0.67328465 4.1326169e-39
0.26651892 0.56104708 0.67542094 4.1326169e-39
0.27507815 0.56106484 0.67494369 4.1326169e-39
0.28498155 0.56108528 0.6751318 4.1326169e-39
0.29498574 0.56110597 0.67504966 4.1326169e-39
0.30061817 0.56111771 0.6749118 4.1326169e-39
0.25920701 -0.55896968 0.68810934 1.1164145e-41
0.26514542 -0.5589574 0.68503731 1.1164145e-41
0.27500716 -0.55893719 0.68505889 1.1164145e-41
0.28510892 -0.55891615 0.68499702 1.1164145e-41
0.29504654 -0.55889571 0.68501234 1.1164145e-41
0.3003197 -0.55888486 0.68513489 1.1164145e-41
0.52452767 -0.3306188 0.68540591 1.4762637e-39
0.52285773 -0.32470006 0.68423885 2.3064112e-39
0.49627084 -0.31112072 0.68009579 2.3986082e-39
0.52095097 -0.31501332 0.68425488 2.8599577e-39
0.52190238 -0.30512735 0.68519121 2.8599577e-39
0.52497691 -0.29513595 0.68494511 2.9517932e-39
0.52795851 -0.28504902 0.68502855 1.0786899e-38
0.53467816 -0.2888535 0.68328369 6.3626335e-39
0.5294162 -0.27567062 0.68484038 1.1708845e-38
0.53009826 -0.27102357 0.68615764 1.1708845e-38
0.52998596 -0.26920933 0.680547 1.1708845e-38
0.53083885 -0.26506832 0.68548721 1.1616649e-38
0.53210568 -0.25484362 0.68479133 1.023191e-38
0.53359216 -0.24478558 0.68507695 9.0319221e-39
0.53505093 -0.23525207 0.68494481 8.754615e-39
0.5365802 -0.22532167 0.68496627 9.0315606e-39
0.51881868 -0.21946481 0.6857391 1.115495e-38
0.53785431 -0.21463299 0.68491852 9.9553204e-39
0.55034643 -0.2138401 0.68502754 2.7871644e-39
0.53833294 -0.20495744 0.68458718 1.1339702e-38
0.53887051 -0.19537199 0.6849981 1.1063483e-38
0.53935599 -0.18687493 0.68410301 4.5191007e-39
0.54045451 -0.18273701 0.68663311 2.8599577e-39
0.54243398 -0.17529072 0.68569964 2.8606765e-39
0.54532325 -0.1649819 0.68680704 2.8599577e-39
0.54870534 -0.15858313 0.68494785 2.8599577e-39
0.55393726 -0.15657295 0.68620616 2.9521575e-39
0.52877343 -0.081010997 0.68628442 1.2722633e-38
0.53351849 -0.083928861 0.68668801 1.4382517e-38
0.51827466 -0.071277633 0.68527782 9.0344515e-39
0.52355427 -0.07622283 0.68476683 1.0970558e-38
0.50899071 -0.060811803 0.68512839 8.942616e-39
0.51320601 -0.06566003 0.68564928 8.942616e-39
0.50443333 -0.055185366 0.68515009 1.0786529e-38
0.49774194 -0.044276852 0.68377072 1.1431895e-38
0.50077552 -0.048621297 0.6856451 1.1616285e-38
0.52016997 -0.047191188 0.68170512 6.6125159e-39
0.49804637 -0.03696302 0.68655157 8.2922005e-39
0.50248152 -0.032022025 0.68608487 8.8338542e-39
0.52441245 -0.034181263 0.68451369 1.2709671e-38
0.50754523 -0.026554771 0.68524301 8.0912473e-39
0.51256347 -0.022429632 0.68420815 9.6546115e-39
0.57702124 -0.024328785 0.68408948 4.8894064e-39
0.51700509 -0.017579786 0.6858924 9.4716608e-39
0.52255845 -0.012617939 0.68425471 9.1914726e-39
0.54801422 -0.015799358 0.68978482 1.1524094e-38
0.52749616 -0.0081073167 0.68520308 9.4713007e-39
0.53339189 -0.0028332509 0.6849255 6.6179529e-39
0.53851241 0.0017256667 0.68446982 6.250255e-39
0.54346812 0.0061916397 0.68506628 5.7918048e-39
0.54881138 0.010991483 0.68495291 5.7003308e-39
0.555076 0.016468685 0.68448281 6.3446128e-39
0.56512415 0.025020478 0.68543184 1.0216789e-38
0.57001126 0.029206326 0.68457943 9.8433244e-39
0.57561946 0.034337226 0.68478024 1.0123873e-38
0.58053535 0.038950309 0.68546605 1.0403339e-38
0.58565968 0.043139696 0.68511361 1.0774281e-38
0.45630753 0.19749244 0.68468958 6.9193778e-39
0.46264723 0.19419904 0.68553138 8.1161077e-39
0.43407029 0.20836067 0.68068784 7.2874344e-39
0.44738168 0.20675458 0.68484467 7.1948829e-39
0.45121577 0.20148063 0.68511003 7.3796329e-39
0.43901101 0.21853408 0.68519497 2.7659292e-39
0.44250488 0.2136934 0.68492341 3.4102098e-39
0.41895694 0.22497287 0.68302917 6.3662054e-39
0.43480268 0.22483189 0.68477744 5.1647952e-39
0.42868698 0.23647273 0.68544 8.2086677e-39
0.43102893 0.23163758 0.68503815 8.2086691e-39
0.42882079 0.24160145 0.68371886 6.3647565e-39
0.4320775 0.24635625 0.68506616 6.0859934e-39
0.43513975 0.25082842 0.68620247 6.2703846e-39
0.44126439 0.25474992 0.68625045 6.6388042e-39
0.25916976 0.56103176 0.68795216 4.1326169e-39
0.26495388 0.5610438 0.68507177 4.1326169e-39
0.27490965 0.56106436 0.68502545 4.1326169e-39
0.28483918 0.56108499 0.68505615 4.1326169e-39
0.29482588 0.56110555 0.68499225 4.1326169e-39
0.30052572 0.56111741 0.68414468 4.1326169e-39
0.28266907 -0.57530636 0.69182438 1.1164145e-41
0.25775903 -0.55897278 0.69591063 1.1164145e-41
0.26496613 -0.55895782 0.69502729 1.1164145e-41
0.27502552 -0.55893701 0.6950897 1.1164145e-41
0.28498697 -0.55891651 0.69494075 1.1164145e-41
0.29495183 -0.55889601 0.69502616 1.1164145e-41
0.30029479 -0.55888492 0.69500607 1.1164145e-41
0.28544745 -0.54930019 0.69238865 1.1164145e-41
0.52201277 -0.32397965 0.69549119 2.7677606e-39
0.52132088 -0.31441572 0.69532144 2.8599577e-39
0.52321053 -0.30483118 0.69472742 2.8599577e-39
0.52596033 -0.29487315 0.69484538 2.8599577e-39
0.52858001 -0.28495479 0.69491267 9.312144e-39
0.55066115 -0.28520966 0.69343936 2.7810562e-39
0.5296942 -0.27764145 0.69272828 1.1708845e-38
0.53067052 -0.27380988 0.69575846 1.1708845e-38
0.53186387 -0.26476246 0.69506603 1.1708845e-38
0.53317416 -0.25520396 0.69494939 1.1708845e-38
0.53460097 -0.245088 0.69501919 1.1708845e-38
0.53603739 -0.23469736 0.69501179 1.1708845e-38
0.53735834 -0.2248597 0.69503784 1.1708845e-38
0.53863835 -0.21538219 0.69519007 1.1616649e-38
0.53951246 -0.20590003 0.69342101 1.1616649e-38
0.5403372 -0.20306931 0.69746631 8.3905562e-39
0.53978533 -0.1962143 0.69104904 1.0049701e-38
0.54066789 -0.1947442 0.69580519 5.7176312e-39
0.54137045 -0.1849166 0.69503111 2.8599577e-39
0.54372168 -0.17488086 0.69438976 2.8599577e-39
0.54734397 -0.16487695 0.69378561 2.8599577e-39
0.5495221 -0.15942131 0.69456029 2.8599577e-39
0.55161327 -0.15783547 0.69606256 2.8599577e-39
0.56428641 -0.15806077 0.69049883 3.0443545e-39
0.53588217 -0.082477964 0.6939984 1.5857647e-38
0.54132992 -0.082355775 0.69845223 1.9729498e-38
0.51870704 -0.07135503 0.6942845 9.0351717e-39
0.52386266 -0.075907424 0.69501382 1.17996e-38
0.50911272 -0.060228456 0.69388932 8.9429761e-39
0.51417643 -0.065393358 0.69608414 9.5883455e-39
0.55777746 -0.066484809 0.69990814 1.9821696e-38
0.50468296 -0.054832939 0.69527537 1.0694693e-38
0.51047766 -0.059943736 0.69956672 1.0325911e-38
0.49786031 -0.044217482 0.695831 1.1432977e-38
0.50010943 -0.041350126 0.69888949 1.124895e-38
0.49882686 -0.038560443 0.69367081 9.1266373e-39
0.50262278 -0.034666121 0.69566149 1.1616285e-38
0.49762154 -0.021918375 0.69122708 8.7243721e-39
0.50750279 -0.027529461 0.69522971 1.2354212e-38
0.51226807 -0.022716189 0.69590753 1.263008e-38
0.51749158 -0.017732436 0.69499642 1.2076903e-38
0.52323204 -0.012748645 0.69585562 1.21691e-38
0.52736282 -0.0080063092 0.69539499 1.2354214e-38
0.53374612 -0.00339064 0.69584733 4.795689e-39
0.55093068 -0.0048803743 0.69689107 4.5090085e-39
0.59995121 -0.0057100859 0.69155771 8.6577726e-39
0.53869051 0.0016890317 0.69437206 2.8599577e-39
0.5446167 0.005964614 0.69618595 2.8595975e-39
0.54881603 0.01073081 0.69343776 2.8599577e-39
0.55520946 0.01522126 0.69581091 4.5191077e-39
0.56098664 0.019249005 0.69838041 1.0510303e-38
0.56555265 0.024085041 0.69537002 1.0694692e-38
0.57114381 0.028351899 0.6970008 1.0233714e-38
0.5760116 0.033407882 0.69448531 1.0418103e-38
0.58238328 0.037967268 0.6958946 9.8649324e-39
0.58702475 0.042057816 0.69394296 1.0418105e-38
0.5913747 0.044507589 0.69587594 9.5883455e-39
0.4564898 0.19780259 0.69534141 6.1814512e-39
0.46342939 0.19438052 0.69501609 8.2997745e-39
0.47004753 0.19670619 0.69947457 8.4812749e-39
0.44769207 0.20662406 0.69461185 6.0899801e-39
0.45133811 0.20177898 0.69547611 6.0896185e-39
0.43899786 0.219044 0.69442832 5.0747589e-39
0.44264185 0.21390995 0.69542956 5.5360916e-39
0.434892 0.22509727 0.69526994 5.8130344e-39
0.42921162 0.23660982 0.69458085 6.1814526e-39
0.4307026 0.23189057 0.69629019 6.0896185e-39
0.42948967 0.24117056 0.69431764 6.6417035e-39
0.43212852 0.24575301 0.69579494 5.9948866e-39
0.43733758 0.25167841 0.69653857 5.7164892e-39
0.44217646 0.25447464 0.69908655 5.4384548e-39
0.25769109 0.5610286 0.69573313 4.1326169e-39
0.26483881 0.56104344 0.69504571 4.1326169e-39
0.27491504 0.56106424 0.69503683 4.1326169e-39
0.28488618 0.56108487 0.69506288 4.1326169e-39
0.2949 0.56110561 0.69492441 4.1326169e-39
0.30064437 0.56111747 0.69499499 4.1326169e-39
0.30204299 0.57060558 0.69366819 4.1326169e-39
0.25605193 -0.55897623 0.70540124 1.1164145e-41
0.26486492 -0.55895805 0.70504117 1.1164145e-41
0.27492499 -0.55893725 0.70511013 1.1164145e-41
0.28501195 -0.55891645 0.7050432 1.1164145e-41
0.29497209 -0.55889589 0.7049371 1.1164145e-41
0.30021018 -0.5588851 0.7052865 1.1164145e-41
0.28821203 -0.54100066 0.70442814 1.1164145e-41
0.52661973 -0.33022255 0.70771796 1.3837066e-39
0.52301919 -0.32458761 0.70550692 2.3986082e-39
0.52275938 -0.3151727 0.70539856 2.8603164e-39
0.52393478 -0.30506396 0.70493156 2.8599577e-39
0.52648503 -0.29506671 0.7049824 2.8603164e-39
0.5288673 -0.28597403 0.7046662 7.561883e-39
0.53030699 -0.2812351 0.70658249 1.0605384e-38
0.53153884 -0.27518064 0.70500767 1.0973444e-38
0.53320086 -0.26510787 0.70491087 1.1065279e-38
0.53463143 -0.25510198 0.70479584 1.1340786e-38
0.53612489 -0.2449194 0.70524943 1.1064563e-38
0.53708476 -0.23521848 0.70479351 1.1524815e-38
0.53828532 -0.22510526 0.70501351 1.1524815e-38
0.5393551 -0.21572055 0.70434695 7.4689699e-39
0.54025787 -0.21189804 0.70818812 2.8603164e-39
0.55434442 -0.21844788 0.70652586 6.9175982e-39
0.53989762 -0.20937306 0.70113498 6.6392176e-39
0.54084885 -0.20479099 0.70504391 3.1365418e-39
0.54202068 -0.19496903 0.70500249 2.8599577e-39
0.54357988 -0.1848073 0.70514566 2.8599577e-39
0.5593136 -0.18524739 0.70283097 3.1365544e-39
0.54558438 -0.17490965 0.70503175 2.8599577e-39
0.54768842 -0.16514888 0.70485628 2.8599577e-39
0.55039972 -0.16094267 0.70730889 2.8599577e-39
0.55489665 -0.15749356 0.70555598 2.8599577e-39
0.56032944 -0.15484931 0.70906496 2.8599577e-39
0.55396229 -0.14073837 0.70057851 3.231987e-39
0.53492111 -0.080987819 0.70180386 1.89923e-38
0.51809835 -0.076211348 0.70121831 1.1708845e-38
0.52620572 -0.074344739 0.70269871 1.5580701e-38
0.53444874 -0.074911527 0.7056852 1.6871436e-38
0.5429799 -0.072911702 0.70603615 1.871535e-38
0.55068803 -0.07206668 0.70139444 1.8991934e-38
0.5175252 -0.063585445 0.70223749 1.1708845e-38
0.52452964 -0.065345019 0.70528364 1.4659102e-38
0.53514689 -0.064901732 0.70662522 1.9176327e-38
0.54414088 -0.06438791 0.70693535 1.9268524e-38
0.55423647 -0.064270407 0.70378166 1.71473e-38
0.56153387 -0.061479926 0.7026602 1.6502665e-38
0.49792176 -0.050723668 0.70174026 9.1867908e-39
0.50675774 -0.05309394 0.7032178 1.2722634e-38
0.51421297 -0.055386189 0.70560682 1.3460562e-38
0.52503228 -0.054828025 0.70640332 1.5212279e-38
0.53533292 -0.055057008 0.70608109 1.7793396e-38
0.54528332 -0.055276807 0.70646101 1.9176328e-38
0.55477285 -0.054236006 0.70689136 1.9453274e-38
0.56404018 -0.054183364 0.70573616 1.5673659e-38
0.57247353 -0.052354679 0.70282185 4.889405e-39
0.4993495 -0.046387985 0.70121157 1.2631522e-38
0.50455201 -0.044986084 0.70502299 1.3551672e-38
0.51484078 -0.044639938 0.70656854 1.6687408e-38
0.52482152 -0.045251381 0.70576 1.5027888e-38
0.53548092 -0.044784602 0.70581812 1.5212279e-38
0.54527229 -0.04508305 0.70580274 1.7240579e-38
0.55480188 -0.044954114 0.70634764 1.9452916e-38
0.56454337 -0.045055497 0.70667744 1.6872551e-38
0.57396674 -0.043905672 0.70594263 5.1659933e-39
0.58232802 -0.042585269 0.70328081 4.8894064e-39
0.50613886 -0.036074355 0.70394909 1.2999221e-38
0.51526356 -0.034617499 0.70531511 1.8900097e-38
0.52502805 -0.034808461 0.7051754 1.5949843e-38
0.53485978 -0.035101026 0.70536071 1.5027888e-38
0.54532737 -0.035065293 0.70573258 1.5027888e-38
0.55504799 -0.034997612 0.70614284 1.465841e-38
0.56441408 -0.035053801 0.70636338 6.3641609e-39
0.57468796 -0.034904428 0.70630103 4.8894064e-39
0.58400953 -0.034647588 0.70591474 4.8894064e-39
0.59196013 -0.031793009 0.70461243 8.7601389e-39
0.50857872 -0.028862122 0.70110387 1.3460198e-38
0.51513672 -0.025781538 0.70277721 1.5211916e-38
0.52461767 -0.02501487 0.70418763 1.8623151e-38
0.53510737 -0.024861259 0.70553267 1.5857648e-38
0.54502308 -0.025013924 0.70611954 1.4014111e-38
0.55437547 -0.024998661 0.70627183 7.0091548e-39
0.564542 -0.025013605 0.70635134 4.8894064e-39
0.57478499 -0.025244072 0.70634264 4.8894064e-39
0.58486652 -0.025025936 0.70642042 4.889405e-39
0.59394503 -0.024025327 0.70618349 8.2995181e-39
0.60201484 -0.022885945 0.7035833 1.871499e-38
0.51883292 -0.019235944 0.70071197 1.3460199e-38
0.52587026 -0.01625195 0.70227569 1.4935691e-38
0.53491914 -0.014909941 0.70447797 1.6503395e-38
0.54486412 -0.014865856 0.70608294 6.0872041e-39
0.55448586 -0.015284762 0.70650429 4.8890463e-39
0.56447029 -0.014822553 0.70643932 4.8894064e-39
0.57448 -0.014996495 0.70640671 4.8894064e-39
0.58482212 -0.014660927 0.70647264 4.889405e-39
0.59483361 -0.015237224 0.70644546 1.0327811e-38
0.60480654 -0.014506384 0.70495999 1.9821696e-38
0.61404634 -0.013659939 0.70289689 1.9176698e-38
0.53620303 -0.0063867485 0.70208877 5.072671e-39
0.54476583 -0.0047928095 0.70463729 4.2436586e-39
0.554456 -0.0051847431 0.70644271 4.9812363e-39
0.56442934 -0.0046355631 0.70648986 4.8894078e-39
0.57476926 -0.0048752851 0.7062034 4.9812419e-39
0.58514535 -0.0051122708 0.70609087 8.3917081e-39
0.59558433 -0.0053479299 0.70611835 1.8715711e-38
0.60572189 -0.0055923997 0.70547229 2.0005716e-38
0.61497486 -0.0044738646 0.70559233 1.9452909e-38
0.54664648 0.0031135688 0.70232022 3.6897464e-39
0.55465722 0.005161379 0.70475632 4.0588988e-39
0.56451625 0.0047630011 0.70638365 4.9812433e-39
0.57497907 0.0046037356 0.70595115 7.7463485e-39
0.58556956 0.004626649 0.70574838 1.5027892e-38
0.59493923 0.0051113665 0.70563936 1.539667e-38
0.60423398 0.004985177 0.70594925 1.7977786e-38
0.61432761 0.0056008273 0.70703965 1.908449e-38
0.55706674 0.011635325 0.70179468 4.4276575e-39
0.5650385 0.015150414 0.70406127 1.0511061e-38
0.57544887 0.014878278 0.70538485 1.6134242e-38
0.58545059 0.014818263 0.7054323 1.5212279e-38
0.5949803 0.015725238 0.70534706 1.5120083e-38
0.60447055 0.015516522 0.70567864 1.5027888e-38
0.61418265 0.014922422 0.70588422 1.6134235e-38
0.56807673 0.022198305 0.70139265 1.0602497e-38
0.57483488 0.025172856 0.70320058 1.5304475e-38
0.58484799 0.025117638 0.70422417 1.5488866e-38
0.59463042 0.025301123 0.70494509 1.5120083e-38
0.60443473 0.024703026 0.70469707 1.5304475e-38
0.61279863 0.023907006 0.70233053 1.5027888e-38
0.5774653 0.032166809 0.70159215 1.2630801e-38
0.58560562 0.034670364 0.70276773 1.6594852e-38
0.59439254 0.034485243 0.704597 1.6871799e-38
0.60395414 0.032012034 0.70299482 1.5857647e-38
0.58841717 0.040464006 0.70098078 1.3091777e-38
0.5917291 0.041304503 0.70201111 1.4658739e-38
0.45729345 0.19806574 0.70381308 4.6025522e-39
0.46437278 0.19741766 0.70461398 6.4457417e-39
0.47177154 0.19859186 0.70323205 8.1099644e-39
0.44849893 0.20783716 0.703453 4.5128887e-39
0.45341906 0.2038002 0.70663482 4.7854973e-39
0.46529904 0.20111899 0.70841128 6.1648164e-39
0.47441241 0.20488635 0.7074787 6.811632e-39
0.43976822 0.21926571 0.70121843 4.9778437e-39
0.44497988 0.21500205 0.70578957 4.4181595e-39
0.45026556 0.21041346 0.70928776 4.6925786e-39
0.47730145 0.21817809 0.70890826 6.7169056e-39
0.43675178 0.2256427 0.70486331 4.3266884e-39
0.44179538 0.22203255 0.7082938 4.7844141e-39
0.46998066 0.22823046 0.70964086 6.4410404e-39
0.47419262 0.22299747 0.709077 6.5325171e-39
0.42976651 0.23739958 0.70112365 3.958266e-39
0.43306535 0.23464441 0.70605677 4.3248821e-39
0.46910036 0.23258795 0.70844251 6.4410404e-39
0.43434659 0.24476583 0.70602679 4.3248821e-39
0.44060892 0.249268 0.70921397 3.9564597e-39
0.45855612 0.24938564 0.70667458 6.2570106e-39
0.46222806 0.2446955 0.70783287 6.3488461e-39
0.43835923 0.25121909 0.70176715 4.3281331e-39
0.44488552 0.25296921 0.70570022 4.3252422e-39
0.45330098 0.25146386 0.70840502 6.1648164e-39
0.25607905 0.56102514 0.70546031 4.1326169e-39
0.26501349 0.56104368 0.70510823 4.1326169e-39
0.27503958 0.56106442 0.70502269 4.1326169e-39
0.28493109 0.56108481 0.70501697 4.1326169e-39
0.29496422 0.56110561 0.70500779 4.1326169e-39
0.30053163 0.56111711 0.70453072 4.1326169e-39
0.27021295 -0.56607538 0.71183276 1.1164145e-41
0.25515437 -0.55897808 0.7147758 1.1164145e-41
0.26502129 -0.55895782 0.71509409 1.1164145e-41
0.27503538 -0.55893707 0.71504349 1.1164145e-41
0.28492337 -0.55891663 0.71506077 1.1164145e-41
0.29496801 -0.55889595 0.71499425 1.1164145e-41
0.30032399 -0.55888492 0.71490645 1.1164145e-41
0.52892542 -0.33119345 0.7120716 3.043993e-39
0.53322732 -0.3335816 0.71608698 2.9517974e-39
0.52469581 -0.32418123 0.71422213 2.3982467e-39
0.53062916 -0.32954282 0.71960008 2.8599577e-39
0.52421522 -0.31467956 0.71546429 2.7799786e-39
0.52536029 -0.30499479 0.71468383 2.7886022e-39
0.50341195 -0.29595843 0.7192136 2.4908066e-39
0.52763826 -0.29497448 0.71508646 2.7893196e-39
0.50666934 -0.28205621 0.71110475 3.0443545e-39
0.52939862 -0.2877025 0.71407109 2.8815153e-39
0.53075182 -0.28311583 0.71543574 2.9740696e-39
0.53248489 -0.27512094 0.71516478 2.9737123e-39
0.53436196 -0.26513433 0.71502709 2.9740696e-39
0.53587437 -0.25474772 0.71501583 3.0662638e-39
0.5370819 -0.2450859 0.71498793 3.0662638e-39
0.53828156 -0.23515683 0.71481895 3.4339646e-39
0.54110318 -0.23864475 0.71418047 9.4014291e-39
0.53938806 -0.22552012 0.71443945 3.5258001e-39
0.54067165 -0.22273093 0.71781409 3.8013037e-39
0.53987139 -0.2180893 0.71119517 4.6224338e-39
0.54083073 -0.21459961 0.71558768 2.7896798e-39
0.54188448 -0.20510875 0.7149024 2.7864456e-39
0.54304922 -0.19482674 0.71536905 2.7868057e-39
0.56679666 -0.19875154 0.7108779 2.7875246e-39
0.54419124 -0.18546402 0.71542078 2.7864456e-39
0.54724884 -0.17524275 0.71445686 2.7814163e-39
0.54935718 -0.16758449 0.71386158 2.7767444e-39
0.55142343 -0.16316696 0.71437562 2.7749493e-39
0.55623794 -0.15833169 0.71361262 3.1383522e-39
0.56378198 -0.15680367 0.71362394 3.5979053e-39
0.6006363 -0.033488337 0.71064645 4.8894064e-39
0.52968311 -0.022968238 0.71669877 1.2631565e-38
0.57948494 -0.026813868 0.71706402 1.6502665e-38
0.56320369 0.035977051 0.71300721 1.0410902e-38
0.45723021 0.20685132 0.71158147 5.6123685e-39
0.46495986 0.20605092 0.71209204 6.2566519e-39
0.47196203 0.2084783 0.71171176 6.4410404e-39
0.44858757 0.21728015 0.71110272 5.0606381e-39
0.45472425 0.21510929 0.71306604 5.8885925e-39
0.46476889 0.21464375 0.71393049 6.4410404e-39
0.47327131 0.21441607 0.71184933 6.6247114e-39
0.43924046 0.22870952 0.71053123 5.1524736e-39
0.44547096 0.2254687 0.71206212 5.7045627e-39
0.45470694 0.22484605 0.71431673 6.1648164e-39
0.46423063 0.2248968 0.71334732 6.6247114e-39
0.47135198 0.22250946 0.71094877 6.6247114e-39
0.43792439 0.235772 0.71174181 5.2446678e-39
0.44473165 0.23465633 0.71363652 6.0726222e-39
0.45449856 0.23506138 0.71409285 6.4406816e-39
0.4632948 0.23395903 0.71190923 6.6247114e-39
0.43798429 0.24258557 0.71129531 4.9688026e-39
0.44458273 0.24484983 0.71284103 5.796757e-39
0.45363218 0.24382077 0.71307433 6.3488461e-39
0.46048307 0.24176998 0.7112875 6.5328759e-39
0.44763446 0.25046042 0.71083879 5.2446678e-39
0.26851189 0.54972649 0.71930909 4.1326169e-39
0.24907261 0.5610106 0.71749187 4.1326169e-39
0.25497159 0.5610227 0.71505868 4.1326169e-39
0.26488957 0.56104326 0.71502972 4.1326169e-39
0.27489448 0.561064 0.71491629 4.1326169e-39
0.28492102 0.56108463 0.71501422 4.1326169e-39
0.2948952 0.56110531 0.7150535 4.1326169e-39
0.3006478 0.56111723 0.71494907 4.1326169e-39
0.25756893 -0.55897313 0.72270888 1.1164145e-41
0.26509759 -0.55895758 0.7249195 1.1164145e-41
0.2749708 -0.55893731 0.72504258 1.1164145e-41
0.28495046 -0.55891663 0.7250548 1.1164145e-41
0.29494715 -0.55889589 0.72496754 1.1164145e-41
0.3002564 -0.55888504 0.72611719 1.1164145e-41
0.53572756 -0.33434057 0.72155929 2.8599577e-39
0.52564979 -0.32300764 0.72549224 1.9372559e-39
0.52531278 -0.31542924 0.72520536 2.7767444e-39
0.5267356 -0.30501524 0.72496873 2.7903986e-39
0.5287503 -0.29560947 0.72471249 2.7903986e-39
0.53020823 -0.29163057 0.72828877 2.7903986e-39
0.52987546 -0.28923449 0.72136801 2.7903986e-39
0.53146607 -0.2846877 0.72519124 2.7903986e-39
0.5433166 -0.28887603 0.72401398 4.0699845e-39
0.53351426 -0.27467608 0.72504687 2.7903986e-39
0.53537655 -0.26476911 0.72522205 2.7903986e-39
0.53677678 -0.25495675 0.72502047 2.7903986e-39
0.5380317 -0.24508381 0.72478336 2.7903986e-39
0.53928 -0.23542915 0.72464836 2.7903986e-39
0.54019612 -0.23225886 0.72831112 2.7903986e-39
0.52806026 -0.22289172 0.72818977 2.8599577e-39
0.53971028 -0.22838597 0.72094274 2.7903986e-39
0.54086745 -0.22443849 0.7255758 2.7903986e-39
0.54200917 -0.21498561 0.72475314 2.7903986e-39
0.5433228 -0.20501782 0.72515208 2.7903986e-39
0.56464195 -0.20587051 0.72184902 2.952519e-39
0.54431295 -0.19512324 0.72486502 2.7903986e-39
0.5452888 -0.18506597 0.72531974 2.7903986e-39
0.54665637 -0.17466527 0.72510874 2.7907588e-39
0.54853272 -0.16702846 0.723575 2.8836761e-39
0.55271101 -0.16392298 0.72579819 2.9773164e-39
0.55737484 -0.15870239 0.72383189 2.965453e-39
0.5622822 -0.15620232 0.7274912 3.1415864e-39
0.51862735 -0.014020592 0.72061002 1.6410459e-38
0.29848719 0.54843974 0.72541457 4.1326169e-39
0.24751711 0.5610072 0.72572416 4.1326169e-39
0.25489363 0.56102246 0.72498274 4.1326169e-39
0.2649388 0.56104326 0.72506237 4.1326169e-39
0.27497929 0.561064 0.72493905 4.1326169e-39
0.28494161 0.56108463 0.72503865 4.1326169e-39
0.29498893 0.56110531 0.72513378 4.1326169e-39
0.30053723 0.56111687 0.72410423 4.1326169e-39
0.26389498 0.57232755 0.72865313 4.1326169e-39
0.26719314 -0.55895329 0.73280281 1.1164145e-41
0.27491558 -0.55893725 0.7349844 1.1164145e-41
0.28504097 -0.55891645 0.73505062 1.1164145e-41
0.29504079 -0.55889583 0.73490316 1.1164145e-41
0.30036706 -0.5588848 0.7353301 1.1164145e-41
0.53354949 -0.33253759 0.73734748 2.9521561e-39
0.54035121 -0.3376044 0.73834074 2.9521561e-39
0.52782238 -0.32429025 0.73472083 1.8450589e-39
0.52741808 -0.31498441 0.73501784 2.775308e-39
0.52811688 -0.30495182 0.73496175 2.7821352e-39
0.5294863 -0.2972531 0.73485297 2.7824939e-39
0.53053194 -0.29254532 0.7357682 2.7796198e-39
0.53214794 -0.2849957 0.73506975 2.7814163e-39
0.53414363 -0.27514225 0.73483592 2.781775e-39
0.52360976 -0.26765144 0.73805714 1.1141957e-38
0.53566223 -0.26515701 0.73532325 2.7806974e-39
0.52417547 -0.25447163 0.7347424 4.4280541e-39
0.53718466 -0.25487843 0.73495859 2.7821352e-39
0.53877962 -0.24455559 0.7349003 2.7824953e-39
0.53986949 -0.23860978 0.73462456 2.7842904e-39
0.5406962 -0.23354004 0.73528582 2.781775e-39
0.55881143 -0.23361741 0.73748285 2.9521589e-39
0.54177022 -0.22513162 0.73485893 2.7835715e-39
0.55940241 -0.22086662 0.73141432 4.797208e-39
0.56141877 -0.22062789 0.73764181 5.3503888e-39
0.54303843 -0.21486326 0.73491293 2.7839316e-39
0.54427719 -0.20474309 0.7352646 2.7839316e-39
0.56240702 -0.20585711 0.73006654 2.8728917e-39
0.54532552 -0.19531371 0.73489946 2.7850092e-39
0.54645681 -0.18482898 0.73544425 2.7850092e-39
0.58950371 -0.18727846 0.73809624 2.9521575e-39
0.54790419 -0.17552133 0.73457623 2.7878847e-39
0.55106074 -0.17196293 0.73837727 3.0583731e-39
0.54946649 -0.16950057 0.733127 2.7903986e-39
0.55373144 -0.16481456 0.73650301 2.9744396e-39
0.55718058 -0.15872149 0.7352916 3.1527254e-39
0.56476772 -0.15702341 0.73337311 3.2316297e-39
0.57121575 -0.15663648 0.73361152 3.32131e-39
0.26685309 0.55188429 0.73730671 4.1326169e-39
0.24579972 0.56100351 0.73534435 4.1326169e-39
0.25489911 0.56102234 0.73502141 4.1326169e-39
0.26490915 0.56104308 0.7350564 4.1326169e-39
0.27501053 0.56106395 0.73506182 4.1326169e-39
0.2850233 0.56108463 0.73505682 4.1326169e-39
0.2950086 0.56110531 0.73498839 4.1326169e-39
0.30065107 0.56111699 0.73411602 4.1326169e-39
0.2772868 0.57630628 0.73457849 4.1326169e-39
0.27699661 -0.55893314 0.74312282 1.1164145e-41
0.28487974 -0.55891675 0.74495679 1.1164145e-41
0.29493716 -0.55889606 0.74502116 1.1164145e-41
0.53504473 -0.33331794 0.748676 2.8599577e-39
0.52860296 -0.32367966 0.74528682 1.937616e-39
0.53098661 -0.3290832 0.74573404 2.8599577e-39
0.56759501 -0.32720095 0.74900413 5.0737949e-39
0.57199264 -0.32213098 0.74743718 5.0737724e-39
0.52917916 -0.31508392 0.74493587 2.8599577e-39
0.53010505 -0.31071132 0.74855757 2.8599577e-39
0.57414019 -0.31148839 0.74959487 5.0737836e-39
0.52954412 -0.30598328 0.74230307 2.8599577e-39
0.53049457 -0.30401218 0.74715495 2.8599577e-39
0.57684344 -0.30329365 0.74884349 4.8890252e-39
0.53137207 -0.29491258 0.74493027 2.8599577e-39
0.53311545 -0.28517294 0.74473554 2.8599577e-39
0.53471959 -0.27504933 0.74507582 2.8599577e-39
0.56065685 -0.27748224 0.7451483 7.2035247e-39
0.53592819 -0.26501513 0.74528122 2.8599577e-39
0.57218176 -0.26994497 0.74957865 4.797208e-39
0.58277839 -0.26183361 0.74908727 5.8113543e-39
0.53734523 -0.25512299 0.74518651 2.8599577e-39
0.5820173 -0.25838029 0.749933 5.8109984e-39
0.51570249 -0.24544048 0.745408 2.7857281e-39
0.53899091 -0.24542689 0.74485403 2.8599577e-39
0.54115212 -0.24228533 0.7463913 5.9927902e-39
0.53986156 -0.23940894 0.74243271 2.8599577e-39
0.54090631 -0.23490079 0.74541038 2.8599577e-39
0.54264522 -0.2249928 0.74523079 2.8599577e-39
0.58840919 -0.22830451 0.74973285 5.7191531e-39
0.5440852 -0.21526845 0.74525094 2.8599577e-39
0.59106028 -0.2166062 0.74911338 6.1801214e-39
0.52271724 -0.2092745 0.74096602 7.6634196e-39
0.5455972 -0.20519356 0.74536377 2.8603164e-39
0.59334123 -0.2031391 0.74891043 6.1801214e-39
0.54678065 -0.19479875 0.74507064 2.8599577e-39
0.54815125 -0.18526082 0.74501878 2.8599577e-39
0.55034 -0.1827691 0.74952078 3.0443545e-39
0.54919517 -0.17805158 0.74354017 2.8599591e-39
0.55157661 -0.17404133 0.74599218 2.8603192e-39
0.55610716 -0.16528617 0.74450463 2.8617555e-39
0.56091118 -0.16100018 0.74404687 2.8599577e-39
0.55987281 -0.15958688 0.74985552 2.8599577e-39
0.56350178 -0.15701078 0.74513203 2.953954e-39
0.2389358 0.56098914 0.74657631 4.1326169e-39
0.2450158 0.56100172 0.74499607 4.1326169e-39
0.25497612 0.56102234 0.74503356 4.1326169e-39
0.26493278 0.56104302 0.74506128 4.1326169e-39
0.2749401 0.56106377 0.74508357 4.1326169e-39
0.28493732 0.56108439 0.74501741 4.1326169e-39
0.29496154 0.56110507 0.74509329 4.1326169e-39
0.30057648 0.56111676 0.74377388 4.1326169e-39
0.53688622 -0.33303192 0.75539827 2.582998e-39
0.54353464 -0.33323875 0.75867122 3.59715e-39
0.55600786 -0.33092055 0.75584251 4.612451e-39
0.56345075 -0.33236301 0.75031149 4.8890449e-39
0.52984256 -0.32235199 0.751176 1.568465e-39
0.5346508 -0.32474181 0.75503802 2.6752049e-39
0.54468936 -0.32517436 0.75844747 3.3209442e-39
0.55503577 -0.32454565 0.75642759 5.0738019e-39
0.56216049 -0.32394034 0.75407428 5.1660003e-39
0.52993548 -0.31875008 0.75106245 2.8599577e-39
0.53385144 -0.31468198 0.75549048 3.5979067e-39
0.54461586 -0.31480506 0.75894618 4.8890463e-39
0.55506736 -0.31523758 0.75785524 5.0738019e-39
0.56376815 -0.31460872 0.7554751 5.0741648e-39
0.57118213 -0.31490558 0.75064802 5.1659947e-39
0.53410447 -0.30515504 0.75605792 3.3213128e-39
0.54411495 -0.30817577 0.75974047 4.7972094e-39
0.55531943 -0.30579078 0.75920111 5.0738019e-39
0.56453484 -0.3046045 0.75670409 5.1660017e-39
0.57219392 -0.30392924 0.75293165 5.1660003e-39
0.53475249 -0.29516712 0.7555269 3.1369145e-39
0.54782379 -0.29475361 0.7501955 2.3986096e-39
0.55670291 -0.29518941 0.75927633 5.1660003e-39
0.56476003 -0.29492241 0.75683552 5.1660003e-39
0.57232881 -0.29460707 0.75391513 5.2581959e-39
0.5365063 -0.28516555 0.75525212 3.2287542e-39
0.54094732 -0.28251278 0.75917292 3.4135098e-39
0.55565602 -0.28457186 0.75926524 5.0738033e-39
0.5648374 -0.28502804 0.75670463 5.1660003e-39
0.57316542 -0.28444934 0.7539258 5.1660003e-39
0.5374952 -0.27463725 0.75430173 3.2287528e-39
0.54251814 -0.27383798 0.75900465 3.6901051e-39
0.55476278 -0.27497175 0.75916594 5.0738019e-39
0.56476974 -0.27505207 0.75674015 5.1660003e-39
0.57384008 -0.27450952 0.75384814 5.1660017e-39
0.53792995 -0.26487446 0.75325376 3.0443545e-39
0.54211193 -0.26432976 0.75843292 3.7823021e-39
0.55508554 -0.26503101 0.75880468 4.9816034e-39
0.56459159 -0.26500857 0.75689638 5.0738047e-39
0.57466424 -0.26489693 0.75357723 5.1660017e-39
0.53877217 -0.25537232 0.7526468 2.8599605e-39
0.54313338 -0.25446698 0.75806695 3.6901051e-39
0.5559876 -0.25541416 0.75900322 5.0738047e-39
0.56476963 -0.25522166 0.75686842 5.0738047e-39
0.5741114 -0.25470278 0.75432175 5.1660003e-39
0.58149219 -0.25376999 0.75108898 5.442583e-39
0.53964126 -0.24689983 0.75142795 2.8599577e-39
0.54341924 -0.24451864 0.75691664 3.5057096e-39
0.55706966 -0.24513076 0.75937754 5.1660003e-39
0.56435198 -0.24549516 0.75744247 5.1659989e-39
0.57450491 -0.24521746 0.75480622 5.1659989e-39
0.58182764 -0.2447425 0.75242645 5.1660003e-39
0.54473376 -0.23482369 0.75629938 3.4135098e-39
0.55616087 -0.23571414 0.75982261 4.9816034e-39
0.56544369 -0.23516768 0.75827986 5.1660003e-39
0.57532644 -0.23495261 0.7555626 5.1660003e-39
0.58226687 -0.23514874 0.75330871 5.1660017e-39
0.54631221 -0.22494663 0.75554878 3.3209512e-39
0.55261785 -0.22346957 0.75975406 4.612451e-39
0.56624424 -0.22592869 0.7591446 5.1660003e-39
0.5745877 -0.22503415 0.75698 5.1660003e-39
0.58361137 -0.22371957 0.75364733 5.2581959e-39
0.54735345 -0.21492523 0.75421649 3.0447147e-39
0.55237138 -0.21575259 0.7592212 4.1514574e-39
0.56874919 -0.21567182 0.75962925 1.0880989e-38
0.57495803 -0.21483472 0.75802058 1.1525992e-38
0.58307511 -0.21459721 0.7550351 6.9176976e-39
0.54837948 -0.20494746 0.75383151 2.9521589e-39
0.55167788 -0.20367205 0.7583822 3.4131511e-39
0.5752092 -0.20513463 0.75854915 1.3450456e-38
0.58389926 -0.20509544 0.75573909 1.1523443e-38
0.53658605 -0.19643989 0.75641686 4.1510945e-39
0.54892308 -0.19537692 0.75247931 2.8599577e-39
0.55176967 -0.19452104 0.75755209 3.2291129e-39
0.57596165 -0.19543026 0.75851762 1.1049038e-38
0.58486181 -0.19472776 0.75578105 8.0189487e-39
0.59002906 -0.19953275 0.75252479 5.1660017e-39
0.54956537 -0.18844321 0.75043297 2.8599577e-39
0.5527845 -0.18476464 0.75564802 3.0443545e-39
0.57634723 -0.18463984 0.75829506 1.1235233e-38
0.58561635 -0.1849297 0.75508094 1.6404686e-38
0.55515957 -0.17465876 0.75521684 3.0443545e-39
0.56926674 -0.1716942 0.75961208 1.217026e-38
0.57449228 -0.17506877 0.75829947 1.4378564e-38
0.58432245 -0.17523685 0.75485289 1.5021764e-38
0.5900628 -0.17484379 0.75248796 1.9545848e-38
0.55695498 -0.16562043 0.75406653 3.1365558e-39
0.56495953 -0.16446604 0.75725436 4.1510973e-39
0.57423323 -0.1646747 0.7573722 4.6116943e-39
0.58216578 -0.16589545 0.75546628 6.0872041e-39
0.56531912 -0.15793598 0.75186813 3.6901051e-39
0.57411355 -0.15848573 0.75419182 3.7823021e-39
0.244987 0.56100154 0.75501662 4.1326169e-39
0.25495133 0.56102222 0.75498444 4.1326169e-39
0.26495552 0.5610429 0.75500083 4.1326169e-39
0.27501786 0.56106377 0.75513649 4.1326169e-39
0.28496429 0.56108415 0.75499731 4.1326169e-39
0.29489678 0.56110483 0.75504285 4.1326169e-39
0.30059361 0.56111658 0.75451195 4.1326169e-39
0.54844797 -0.33291882 0.76025909 3.1358145e-39
0.55042851 -0.33191717 0.76077783 3.2280073e-39
0.53498286 -0.32253987 0.76961136 2.9521561e-39
0.54899591 -0.32867756 0.7601856 5.533247e-39
0.55068946 -0.3298673 0.76047611 2.9521645e-39
0.53942132 -0.30220178 0.76012874 4.7972066e-39
0.54522634 -0.3036114 0.76048493 4.7972094e-39
0.55141985 -0.30220255 0.76038361 5.0738019e-39
0.56823123 -0.30564415 0.76035929 2.7860868e-39
0.53931415 -0.29553536 0.76025546 4.5202511e-39
0.54437113 -0.29488394 0.76100934 4.7050109e-39
0.55156881 -0.29484898 0.76067394 5.0738047e-39
0.54496777 -0.28518161 0.76080054 4.7046494e-39
0.55132771 -0.2867538 0.76030219 5.0738019e-39
0.54575992 -0.27539408 0.7604422 4.704648e-39
0.52809191 -0.26459771 0.76368964 4.7046494e-39
0.54694235 -0.2653603 0.76044756 4.704648e-39
0.55105621 -0.26042789 0.76005191 5.1660003e-39
0.54825532 -0.25609255 0.76037031 4.4280513e-39
0.55102754 -0.25440741 0.76040757 4.9816062e-39
0.56761265 -0.25954583 0.76903391 2.7864456e-39
0.54909962 -0.24660893 0.7600652 4.7046466e-39
0.55204225 -0.24476679 0.76041669 4.797208e-39
0.55436724 -0.23486055 0.76034433 4.797208e-39
0.55651534 -0.22587487 0.76019585 4.797208e-39
0.56163615 -0.22438967 0.76032716 4.8894078e-39
0.55678129 -0.21356487 0.76046646 4.796845e-39
0.56336099 -0.21495466 0.7605803 7.1013616e-39
0.55619019 -0.20506041 0.76119637 4.4280527e-39
0.56521392 -0.20515224 0.7607457 1.5120487e-38
0.54297489 -0.19192971 0.76634157 5.1660003e-39
0.55649328 -0.19498254 0.7618171 4.3354927e-39
0.5647729 -0.19519472 0.76132852 1.4198542e-38
0.57229871 -0.19489163 0.76021302 1.1704542e-38
0.55728191 -0.18558894 0.76151317 3.9666976e-39
0.56436926 -0.18494968 0.76169968 1.5396712e-38
0.57072133 -0.18617423 0.76023871 1.5116472e-38
0.55884278 -0.17600152 0.76098931 3.598264e-39
0.56456465 -0.1751224 0.76091617 1.4013427e-38
0.56378251 -0.16917141 0.76014888 4.7968394e-39
0.56064808 -0.15237814 0.76287508 3.598264e-39
0.27360842 0.55505311 0.7682882 4.1326169e-39
0.30261683 0.55234998 0.76949036 4.1326169e-39
0.24496707 0.56100154 0.76498628 4.1326169e-39
0.25489712 0.56102198 0.76504517 4.1326169e-39
0.26483658 0.56104261 0.76501101 4.1326169e-39
0.27489147 0.56106335 0.76509756 4.1326169e-39
0.28489286 0.56108403 0.76499403 4.1326169e-39
0.29498431 0.56110483 0.76500827 4.1326169e-39
0.30053106 0.56111634 0.76482087 4.1326169e-39
0.54478306 -0.23114699 0.77267021 3.3213114e-39
0.58532953 -0.19502166 0.77509815 3.1365544e-39
0.24582942 0.56100315 0.77414656 4.1326169e-39
0.25496274 0.56102192 0.77501595 4.1326169e-39
0.26501942 0.56104267 0.77507877 4.1326169e-39
0.27501136 0.56106347 0.77504486 4.1326169e-39
0.28501147 0.56108403 0.77496034 4.1326169e-39
0.29489833 0.5611046 0.77510732 4.1326169e-39
0.30059978 0.56111634 0.77517223 4.1326169e-39
0.54318559 -0.23893923 0.78046387 1.1249396e-38
0.2490966 0.56100976 0.78097212 4.1326169e-39
0.25566617 0.56102329 0.78434181 4.1326169e-39
0.2649143 0.56104243 0.78504497 4.1326169e-39
0.27497745 0.56106329 0.78492248 4.1326169e-39
