# .PCD v0.7 - Point Cloud Data file format
VERSION 0.7
FIELDS x y z rgb
SIZE 4 4 4 4
TYPE F F F F
COUNT 1 1 1 1
WIDTH 1005
HEIGHT 1
VIEWPOINT 0 0 0 1 0 0 0
POINTS 1005
DATA ascii
0.47024816 0.19517224 0.6597929 6.6380854e-39
0.68302584 0.19798662 0.65960521 1.0786889e-38
0.44747609 0.2063982 0.65479118 6.3662068e-39
0.45090964 0.20115851 0.65479618 6.826822e-39
0.43910402 0.21841222 0.65488338 6.1821757e-39
0.44256571 0.21362068 0.65501714 6.1821757e-39
0.43444127 0.22479436 0.65466869 6.5505967e-39
0.42901698 0.23651476 0.65337861 6.2743699e-39
0.430792 0.23246442 0.65570128 6.826822e-39
0.42843944 0.24290594 0.65529108 6.4580381e-39
0.43179423 0.24823932 0.65620363 5.9019636e-39
0.43568721 0.25161108 0.65364438 6.6380854e-39
0.57101673 0.29043028 0.65013486 1.0694693e-38
0.63170868 0.32165137 0.65866524 1.0694693e-38
0.65302277 0.32525542 0.65275407 1.0694693e-38
0.69240093 0.36044252 0.65615624 1.0602497e-38
0.43968976 0.38604644 0.65086418 1.0694693e-38
0.51520771 0.38964128 0.65077627 1.0694693e-38
0.74772537 0.38776007 0.65301871 1.0694693e-38
0.50751901 0.40135628 0.65439451 1.0602497e-38
0.47155282 0.41996822 0.65088642 1.0694693e-38
0.32174098 0.42456159 0.65613753 1.0602497e-38
0.49942726 0.42746314 0.65104491 1.0602497e-38
0.34692326 0.43620199 0.65232259 1.0602497e-38
0.71683651 0.45517802 0.65079731 1.0694693e-38
0.78116363 0.46899 0.65810359 1.0602497e-38
0.38079146 0.51505435 0.65506095 1.0694693e-38
0.29007614 0.54389215 0.65784115 4.1326169e-39
0.26930609 0.56105316 0.65840149 4.1326169e-39
0.27526426 0.56117523 0.65503615 4.1326169e-39
0.28497213 0.56108564 0.65506512 4.1326169e-39
0.29480562 0.56110597 0.65506172 4.1326169e-39
0.30059907 0.56111795 0.65487725 4.1326169e-39
0.40511 0.60339695 0.65766746 1.0602497e-38
0.45737028 0.64489931 0.65627825 1.0602497e-38
0.40465158 0.70361334 0.6503799 1.0602497e-38
0.40101475 -0.64603323 0.66463488 1.0879084e-38
0.33294064 -0.57140249 0.66521376 1.1164145e-41
0.26806447 -0.55895144 0.66565061 1.1164145e-41
0.2749522 -0.55893719 0.66499329 1.1164145e-41
0.28495464 -0.55891651 0.66493744 1.1164145e-41
0.29501334 -0.55889583 0.66508484 1.1164145e-41
0.30024976 -0.55888498 0.66357744 1.1164145e-41
0.39311111 -0.4411982 0.66070914 1.1063476e-38
0.49597901 -0.38102093 0.66037619 1.097128e-38
0.46868739 -0.33404788 0.66539836 1.0879084e-38
0.47571856 -0.33798906 0.66922456 2.952519e-39
0.52261651 -0.33046162 0.66464919 3.1365516e-39
0.37908503 -0.32803136 0.6633234 1.0879084e-38
0.51962155 -0.32420135 0.66606659 2.3986068e-39
0.522443 -0.32960314 0.66753238 3.1365516e-39
0.51928681 -0.31616303 0.664891 3.3205687e-39
0.52013105 -0.31335694 0.66749263 2.8599577e-39
0.51989824 -0.30897561 0.66319603 2.8599577e-39
0.52134603 -0.30426848 0.66552103 2.8599577e-39
0.54324996 -0.30622762 0.66757953 2.4908052e-39
0.52411824 -0.29517648 0.66526306 2.8599577e-39
0.52650148 -0.28533021 0.66500443 4.5191007e-39
0.52766263 -0.2747536 0.66467589 1.0879091e-38
0.51243728 -0.26361725 0.66767073 2.8599577e-39
0.52882189 -0.26522419 0.66515213 7.1865648e-39
0.52960134 -0.25716576 0.6633243 6.817062e-39
0.53045863 -0.25319934 0.66641819 5.892219e-39
0.531416 -0.24469618 0.66492122 5.9844146e-39
0.52736306 -0.2309764 0.66399002 1.0417385e-38
0.53257406 -0.23510385 0.66509873 5.9844161e-39
0.53369385 -0.22500519 0.66496414 6.3542804e-39
0.53472793 -0.21499769 0.66538185 6.8174221e-39
0.54777312 -0.21604995 0.66016561 9.5887253e-39
0.50671393 -0.2093886 0.66104031 8.85117e-39
0.53525925 -0.20503941 0.66528106 8.5713055e-39
0.53603709 -0.19525048 0.6650548 1.0879093e-38
0.52644694 -0.18266204 0.66056716 2.8599577e-39
0.53811198 -0.18490459 0.6642527 3.0443461e-39
0.51199353 -0.17194332 0.66553873 2.8599577e-39
0.53957611 -0.17873627 0.66532344 2.8599577e-39
0.54118741 -0.17366777 0.66521639 2.8599577e-39
0.54463059 -0.16494763 0.66537338 2.8599577e-39
0.57211363 -0.16063611 0.66907328 3.1365544e-39
0.54904991 -0.15857679 0.66622394 2.8599577e-39
0.55409455 -0.15683857 0.66416174 3.0443545e-39
0.56238139 -0.15817665 0.66467214 3.1365544e-39
0.56169367 -0.11284207 0.6673975 9.1867908e-39
0.52948427 -0.1098744 0.66014004 9.1914726e-39
0.52416813 -0.096391216 0.66878074 1.4843496e-38
0.82626772 -0.090662889 0.66882348 1.0879084e-38
0.52893597 -0.081289284 0.66504383 8.7243721e-39
0.5321753 -0.084841102 0.66626841 9.4702202e-39
0.51899832 -0.071017608 0.66579115 8.7243721e-39
0.5237509 -0.075986177 0.66445053 8.7243721e-39
0.56935573 -0.078561075 0.66797984 1.6502665e-38
0.50957996 -0.060689371 0.66470635 8.7243721e-39
0.51403898 -0.065502919 0.6651805 8.7247323e-39
0.50430888 -0.054725602 0.66482687 8.9998786e-39
0.49812528 -0.045062922 0.6642428 9.8285589e-39
0.50049275 -0.046581309 0.66778326 1.0101905e-38
0.52650297 -0.043596718 0.66033286 7.6227063e-39
0.49852669 -0.037238423 0.66647255 9.0917141e-39
0.50217462 -0.031496577 0.6669932 6.1529782e-39
0.50661844 -0.02720247 0.66611111 6.7958267e-39
0.51258594 -0.022174664 0.66435325 6.4284847e-39
0.5178597 -0.017776825 0.66497618 7.5305107e-39
0.52330744 -0.012607215 0.66537392 8.7243721e-39
0.5184598 -0.0022842251 0.66041672 8.0815237e-39
0.52870053 -0.007734505 0.66480577 8.7243721e-39
0.53371072 -0.0032347068 0.66502798 8.7243721e-39
0.33559972 0.0076994933 0.66948813 7.8366285e-39
0.53874522 0.0012993517 0.66527039 8.7243721e-39
0.54456478 0.0065572718 0.66444093 8.7243721e-39
0.54845315 0.010032318 0.66604072 8.7243721e-39
0.55469012 0.015369221 0.66522199 8.6325366e-39
0.56521732 0.024704853 0.6644702 8.7243721e-39
0.57024467 0.029317334 0.66494066 8.7243721e-39
0.54972202 0.034266207 0.66680133 4.5126155e-39
0.57555413 0.034158435 0.6654104 8.7243721e-39
0.58147281 0.03921283 0.66631383 8.9080431e-39
0.55860186 0.043066077 0.66665643 6.7147616e-39
0.58655506 0.042964246 0.66515434 9.0917141e-39
0.59306395 0.04500046 0.6678955 9.0942519e-39
0.78900343 0.074331097 0.66187322 1.0786889e-38
0.41249138 0.099222004 0.66436571 1.0786889e-38
0.70411217 0.12738304 0.6664927 1.0786889e-38
0.73274237 0.14147763 0.66229081 1.0786889e-38
0.44024825 0.16789003 0.66934407 7.2874344e-39
0.46611246 0.17273298 0.66714394 8.0228247e-39
0.44463608 0.18843935 0.66903681 6.6304945e-39
0.45582852 0.19676937 0.66499883 7.0108504e-39
0.46087629 0.19404137 0.66793597 9.0373353e-39
0.36203501 0.20283075 0.66556579 1.0694693e-38
0.44745857 0.20621108 0.66467804 7.563664e-39
0.45101228 0.20122771 0.66513932 6.9190163e-39
0.43899098 0.21852593 0.66483617 2.9567986e-39
0.44261017 0.2134378 0.6651929 3.1419073e-39
0.43421525 0.22498538 0.665295 5.6286488e-39
0.61154264 0.22704993 0.66086745 1.0694693e-38
0.4285624 0.23613286 0.66558677 7.1030474e-39
0.43044716 0.23094547 0.6648913 8.1164734e-39
0.42911592 0.24240653 0.66517967 6.1821743e-39
0.43174684 0.24710654 0.66389465 5.3495143e-39
0.74208844 0.24846432 0.6683023 1.0694693e-38
0.4368059 0.25268018 0.66485393 6.0852703e-39
0.79597324 0.32026142 0.66924042 1.0694693e-38
0.58403391 0.38722676 0.66776955 1.0602497e-38
0.35623991 0.43287617 0.661789 7.467846e-39
0.26802796 0.56105042 0.66563118 4.1326169e-39
0.27487749 0.5610646 0.66504389 4.1326169e-39
0.28504196 0.56108564 0.66509593 4.1326169e-39
0.29497966 0.56114274 0.66516703 4.1326169e-39
0.30064842 0.56111789 0.66463286 4.1326169e-39
0.35347998 0.6936152 0.66806513 1.0602497e-38
0.27211323 -0.58098185 0.67278939 1.1164145e-41
0.26632553 -0.55895501 0.67533642 1.1164145e-41
0.27502358 -0.55893707 0.67500967 1.1164145e-41
0.2849513 -0.55891657 0.67504501 1.1164145e-41
0.29497057 -0.55889595 0.67494041 1.1164145e-41
0.30026552 -0.55888504 0.67426729 1.1164145e-41
0.32157204 -0.54530936 0.67930508 1.1164145e-41
0.52685094 -0.33233073 0.67226559 2.3986082e-39
0.51990193 -0.3242836 0.67162305 2.5830022e-39
0.52061492 -0.32388443 0.67618531 2.5830037e-39
0.52033269 -0.31505015 0.67450976 2.8599577e-39
0.55533171 -0.31131405 0.67863202 8.5742202e-39
0.52178329 -0.30498308 0.67478257 2.8599577e-39
0.52478248 -0.29487059 0.67491472 2.8599577e-39
0.52732575 -0.28515205 0.67490178 1.0049701e-38
0.50810939 -0.27969432 0.6756779 5.0719101e-39
0.52862918 -0.27524269 0.67512 1.1616649e-38
0.52952695 -0.26615962 0.67340171 7.923411e-39
0.5303697 -0.26280865 0.67688519 7.4620699e-39
0.52683103 -0.25120345 0.67110819 7.6634196e-39
0.53115022 -0.25511983 0.67498553 5.8918589e-39
0.43139014 -0.24931934 0.67672801 1.0879084e-38
0.53254163 -0.24538624 0.67489517 5.983693e-39
0.54415852 -0.24056005 0.67261797 4.4269064e-39
0.53406507 -0.23497258 0.67491591 5.8914988e-39
0.53542686 -0.22484484 0.67496985 5.8914988e-39
0.51151347 -0.21690041 0.67300242 1.115495e-38
0.53629899 -0.2152058 0.6748091 5.8918575e-39
0.53686512 -0.20512146 0.67490077 7.7390183e-39
0.53753161 -0.19482261 0.67541045 1.1616649e-38
0.53838438 -0.18526204 0.6745187 3.9659339e-39
0.54213256 -0.18208681 0.67708576 2.8599605e-39
0.53964889 -0.17911784 0.67134398 2.8599577e-39
0.54236871 -0.17501166 0.6754384 2.8599577e-39
0.56938785 -0.17618197 0.67816126 3.1340152e-39
0.81725204 -0.17592451 0.67289853 1.0879084e-38
0.54664171 -0.16511765 0.6751281 2.8599577e-39
0.54946923 -0.15878059 0.67510939 2.8599577e-39
0.55045915 -0.15676093 0.67586935 2.8599577e-39
0.59489328 -0.1513132 0.6792804 3.0443545e-39
0.40784559 -0.11338397 0.67336828 1.0786889e-38
0.5446822 -0.095889926 0.67573589 8.729414e-39
0.52893418 -0.081226982 0.67378038 9.2847486e-39
0.53226519 -0.083829388 0.67485243 9.7518476e-39
0.51908469 -0.071223259 0.67354941 8.8219698e-39
0.52400714 -0.076417081 0.67546713 9.6596534e-39
0.50876701 -0.060115881 0.67247653 8.7243721e-39
0.51381767 -0.06560006 0.67517054 8.8273718e-39
0.49626711 -0.058442634 0.67048699 8.7290539e-39
0.50426781 -0.05485848 0.67512602 9.3830665e-39
0.71259409 -0.057672679 0.67059046 1.0879084e-38
0.87194413 -0.053809427 0.6711598 1.0879084e-38
0.49694374 -0.044495851 0.67685759 9.8566479e-39
0.4985795 -0.038010564 0.67409235 5.6977622e-39
0.50264341 -0.03330018 0.67414576 6.7958267e-39
0.50774646 -0.027012927 0.67393529 6.2448137e-39
0.51274806 -0.02181706 0.67464823 7.2550042e-39
0.6397087 -0.023010055 0.67177176 1.9545471e-38
0.51764971 -0.017342167 0.67556 8.6325366e-39
0.52277309 -0.01273635 0.67466104 8.7243721e-39
0.5276742 -0.0083671324 0.67464739 8.7243721e-39
0.53359336 -0.0030216016 0.67564458 8.7243721e-39
0.5388425 0.0016714548 0.67447054 8.7243721e-39
0.54388601 0.0062143439 0.67474943 8.7243721e-39
0.54880911 0.010652612 0.67640692 8.7243721e-39
0.5548858 0.015865475 0.67469931 8.7243721e-39
0.56471097 0.024414299 0.67465985 8.7243721e-39
0.57017523 0.02925846 0.67541528 8.7243721e-39
0.57520151 0.033983491 0.6752367 8.7243721e-39
0.58061653 0.039068941 0.67644364 8.7243721e-39
0.52434307 0.041777823 0.67003059 1.0786889e-38
0.58326548 0.041522648 0.67829084 8.7243721e-39
0.58305573 0.052205987 0.67535174 1.0045361e-38
0.38218772 0.078293152 0.67245597 1.0786889e-38
0.45586416 0.19691129 0.67519057 7.5636598e-39
0.4640989 0.19409899 0.6735301 7.8380733e-39
0.44751334 0.20638186 0.67519695 6.3658467e-39
0.4510828 0.20141688 0.67502457 6.3665656e-39
0.43896303 0.21869324 0.67513728 2.4904255e-39
0.44259593 0.21377625 0.67478681 3.1347075e-39
0.41494012 0.22894129 0.6703046 6.1821757e-39
0.43435359 0.2251361 0.6750102 4.3364835e-39
0.42970425 0.23564099 0.67293423 6.1821757e-39
0.43052223 0.23339957 0.67563397 6.1821757e-39
0.4294219 0.24307431 0.67513686 6.1818142e-39
0.43202627 0.24809219 0.67631322 6.1789135e-39
0.48798835 0.24707361 0.67410034 6.0870794e-39
0.43626061 0.25204223 0.67511141 6.454413e-39
0.21344167 0.55428952 0.67718071 4.1326169e-39
0.26651892 0.56104714 0.67542088 4.1326169e-39
0.27507812 0.56106484 0.67494369 4.1326169e-39
0.28498149 0.56108534 0.67513198 4.1326169e-39
0.29498577 0.56110603 0.67504966 4.1326169e-39
0.30061817 0.56111771 0.6749118 4.1326169e-39
0.3133198 -0.57634318 0.68228078 1.1164145e-41
0.25920701 -0.55896968 0.68810922 1.1164145e-41
0.26514542 -0.55895746 0.68503731 1.1164145e-41
0.27500719 -0.55893701 0.68505877 1.1164145e-41
0.28510892 -0.55891627 0.68499714 1.1164145e-41
0.29504657 -0.55889571 0.68501222 1.1164145e-41
0.3003197 -0.55888486 0.68513489 1.1164145e-41
0.2880812 -0.54936808 0.68671829 1.1164145e-41
0.52452767 -0.3306188 0.68540591 1.4762637e-39
0.52285773 -0.32470006 0.68423885 2.3064112e-39
0.52095103 -0.31501332 0.68425488 2.8599577e-39
0.54375041 -0.3104324 0.68939674 6.9276595e-39
0.52190232 -0.30512735 0.68519133 2.8599577e-39
0.51615697 -0.29289171 0.68465751 3.0443573e-39
0.52497697 -0.29513595 0.68494523 2.9517932e-39
0.52795863 -0.28504899 0.68502855 1.0786899e-38
0.52941626 -0.27567056 0.68484038 1.1708845e-38
0.53009826 -0.27102357 0.68615758 1.1708845e-38
0.52963334 -0.26760602 0.68029594 7.2013681e-39
0.53083885 -0.26506832 0.68548721 1.1616649e-38
0.53210568 -0.25484362 0.68479121 1.023191e-38
0.53359216 -0.24478561 0.68507701 9.0319221e-39
0.53505099 -0.23525205 0.68494475 8.754615e-39
0.53658015 -0.22532164 0.68496615 9.0315606e-39
0.53785425 -0.21463294 0.68491858 9.9553204e-39
0.53832889 -0.20500153 0.68463343 1.1431898e-38
0.58167732 -0.20529608 0.68272305 2.8728917e-39
0.53887063 -0.19537196 0.68499804 1.1063483e-38
0.52469927 -0.1841552 0.68962097 3.8737383e-39
0.53935599 -0.1868749 0.68410289 4.5191007e-39
0.54045451 -0.18273701 0.68663305 2.8599577e-39
0.54222912 -0.17517982 0.68582463 2.8599577e-39
0.5510537 -0.17080659 0.68730378 6.0766103e-39
0.60569507 -0.17100731 0.68744284 3.0590906e-39
0.54532313 -0.1649819 0.6868071 2.8599577e-39
0.54870534 -0.1585831 0.68494785 2.8599577e-39
0.55393726 -0.15657295 0.68620616 2.9521575e-39
0.61889654 -0.13223611 0.68998963 1.0879084e-38
0.56461811 -0.11619607 0.68569452 2.8599591e-39
0.50533515 -0.082207255 0.68804497 1.2631522e-38
0.52877343 -0.081010997 0.68628442 1.2722633e-38
0.53314382 -0.08374662 0.68653286 1.3921539e-38
0.51827461 -0.071277633 0.68527782 9.0344515e-39
0.52355427 -0.076222837 0.68476683 1.0970558e-38
0.50899076 -0.060811803 0.68512833 8.942616e-39
0.51320606 -0.06566003 0.68564928 8.942616e-39
0.49959928 -0.055932138 0.68477654 1.6410459e-38
0.50443327 -0.055185378 0.68515015 1.0786529e-38
0.49774197 -0.044276848 0.68377072 1.1431895e-38
0.50077558 -0.048621297 0.68564504 1.1616285e-38
0.5416624 -0.040105157 0.68992084 9.219563e-39
0.49804637 -0.036963012 0.68655157 8.2922005e-39
0.50248152 -0.032022022 0.68608487 8.8338542e-39
0.55679929 -0.036346927 0.68851918 1.4566908e-38
0.50754523 -0.026554763 0.68524295 8.0912473e-39
0.51259553 -0.021793824 0.68486577 9.4702231e-39
0.52006614 -0.023930524 0.68313164 1.0960833e-38
0.51700509 -0.017579783 0.6858924 9.4716608e-39
0.52255845 -0.012617934 0.68425471 9.1914726e-39
0.52749604 -0.0081073148 0.68520308 9.4713007e-39
0.53339189 -0.0028332488 0.6849255 6.6179529e-39
0.53851235 0.0017256693 0.68446982 6.250255e-39
0.54346818 0.0061916416 0.68506634 5.7918048e-39
0.52630246 0.011366969 0.68179697 1.7148386e-38
0.54881138 0.010991485 0.6849528 5.7003308e-39
0.55507594 0.016468691 0.68448281 6.3446128e-39
0.56512415 0.025020486 0.68543178 1.0216789e-38
0.57001126 0.029206328 0.68457943 9.8433244e-39
0.60288978 0.029829277 0.68234509 8.7243721e-39
0.57561958 0.034337234 0.68478024 1.0123873e-38
0.58196223 0.038599558 0.68626559 1.0030597e-38
0.58558404 0.043127026 0.68533146 1.0496974e-38
0.54859585 0.096379548 0.68813735 1.0786889e-38
0.52951956 0.12839225 0.68255609 1.0786889e-38
0.44705263 0.17491184 0.68160677 5.0613625e-39
0.4753727 0.18360263 0.68193996 5.3513444e-39
0.62880701 0.18945822 0.68943232 1.0786889e-38
0.45630756 0.19749244 0.68468958 6.9193778e-39
0.46264726 0.19419904 0.68553138 8.1161077e-39
0.44738159 0.2067546 0.68484473 7.1948829e-39
0.45121574 0.20148058 0.68510991 7.3796329e-39
0.43901092 0.21853408 0.68519491 2.7659292e-39
0.44250488 0.2136934 0.68492347 3.4102098e-39
0.43480259 0.22483192 0.68477756 5.1647952e-39
0.42868695 0.23647274 0.68543994 8.2086677e-39
0.43102899 0.23163758 0.68503821 8.2086691e-39
0.42882085 0.24160147 0.6837188 6.3647565e-39
0.4320775 0.24635626 0.6850661 6.0859934e-39
0.43513969 0.25082842 0.68620247 6.2703846e-39
0.44126439 0.25474992 0.68625045 6.6388042e-39
0.24344297 0.54704499 0.68204033 4.1326169e-39
0.23287857 0.56402451 0.68113565 4.1326169e-39
0.25916976 0.56103176 0.68795216 4.1326169e-39
0.26495388 0.5610438 0.68507165 4.1326169e-39
0.27490959 0.56106442 0.68502545 4.1326169e-39
0.28483918 0.56108499 0.68505591 4.1326169e-39
0.29482591 0.56110549 0.68499231 4.1326169e-39
0.30052575 0.56111741 0.68414468 4.1326169e-39
0.2823076 0.57845479 0.68327951 4.1326169e-39
0.32791036 0.60666585 0.68451673 4.1326169e-39
0.28591675 -0.56023926 0.69643486 1.1164145e-41
0.25775903 -0.55897266 0.69591069 1.1164145e-41
0.2649661 -0.55895787 0.69502735 1.1164145e-41
0.27502549 -0.55893707 0.6950897 1.1164145e-41
0.284987 -0.55891651 0.69494087 1.1164145e-41
0.29495177 -0.55889601 0.69502598 1.1164145e-41
0.30029479 -0.55888492 0.69500607 1.1164145e-41
0.32818177 -0.55919981 0.69797438 1.1164145e-41
0.53286439 -0.33356842 0.69494182 2.8599577e-39
0.52201271 -0.32397971 0.69549125 2.7677606e-39
0.52132088 -0.31441566 0.69532138 2.8599577e-39
0.52321064 -0.30483124 0.69472748 2.8599577e-39
0.52596039 -0.29487315 0.69484526 2.8599577e-39
0.52858001 -0.28495476 0.69491273 9.312144e-39
0.5296942 -0.27764142 0.69272834 1.1708845e-38
0.53067052 -0.27380988 0.69575852 1.1708845e-38
0.53186393 -0.26476246 0.69506609 1.1708845e-38
0.53317416 -0.25520396 0.69494933 1.1708845e-38
0.51464868 -0.24483712 0.6947453 6.0766103e-39
0.53460091 -0.24508797 0.6950193 1.1708845e-38
0.53603745 -0.23469737 0.69501185 1.1708845e-38
0.53735828 -0.2248597 0.69503766 1.1708845e-38
0.5384801 -0.21527766 0.69514567 1.1616291e-38
0.53907186 -0.20609191 0.69328099 1.1432261e-38
0.5403372 -0.2030693 0.69746631 8.3905562e-39
0.53978539 -0.19621429 0.69104904 1.0049701e-38
0.54066777 -0.19474418 0.69580513 5.7176312e-39
0.54137033 -0.18491659 0.69503099 2.8599577e-39
0.54372168 -0.17488086 0.69438982 2.8599577e-39
0.54734391 -0.16487695 0.69378573 2.8599577e-39
0.5495221 -0.15942128 0.69456029 2.8599577e-39
0.55161327 -0.15783547 0.69606251 2.8599577e-39
0.56428641 -0.15806076 0.69049883 3.0443545e-39
0.53588223 -0.082477972 0.6939984 1.5857647e-38
0.54132992 -0.082355775 0.69845223 1.9729498e-38
0.51870704 -0.071355045 0.69428444 9.0351717e-39
0.52394664 -0.075895049 0.69521779 1.198543e-38
0.61504817 -0.076980628 0.69659299 1.8807546e-38
0.50911272 -0.060228463 0.69388932 8.9429761e-39
0.51417637 -0.065393366 0.69608426 9.5883455e-39
0.55777746 -0.066484809 0.69990814 1.9821696e-38
0.50468302 -0.054832939 0.6952756 1.0694693e-38
0.51047766 -0.059943743 0.69956672 1.0325911e-38
0.49786031 -0.044217478 0.69583112 1.1432977e-38
0.50010943 -0.041350126 0.69888949 1.124895e-38
0.54997861 -0.044393696 0.69014972 8.7243721e-39
0.49882686 -0.038560439 0.69367081 9.1266373e-39
0.50262284 -0.034666117 0.69566149 1.1616285e-38
0.50750285 -0.027529456 0.69522977 1.2354212e-38
0.51226807 -0.022716187 0.69590759 1.263008e-38
0.51749158 -0.017732434 0.69499642 1.2076903e-38
0.52323204 -0.012748642 0.69585556 1.21691e-38
0.47849771 -0.0081571378 0.6986376 1.1432257e-38
0.52792609 -0.0081370892 0.69527864 1.2354214e-38
0.53374612 -0.0033906389 0.69584733 4.795689e-39
0.53869051 0.0016890336 0.694372 2.8599577e-39
0.54469299 0.0059076766 0.69598222 3.1361844e-39
0.54881603 0.01073081 0.69343776 2.8599577e-39
0.55520958 0.015221262 0.69581097 4.5191077e-39
0.56098664 0.019249007 0.69838035 1.0510303e-38
0.53754002 0.025743879 0.69095564 4.9808705e-39
0.56555265 0.024085045 0.69537002 1.0694692e-38
0.57114375 0.028351899 0.6970008 1.0233714e-38
0.55760211 0.039486933 0.69161338 8.7243721e-39
0.57601154 0.033407882 0.69448531 1.0418103e-38
0.58238328 0.037967276 0.69589466 9.8649324e-39
0.58702469 0.04205782 0.69394296 1.0418105e-38
0.5913747 0.044507593 0.69587594 9.5883455e-39
0.42119688 0.1979022 0.69528323 2.7698892e-39
0.4564898 0.1978026 0.69534147 6.1814512e-39
0.46342939 0.19438051 0.69501603 8.2997745e-39
0.47004753 0.19670619 0.69947457 8.4812749e-39
0.43387341 0.20989484 0.69632328 6.6424294e-39
0.44769207 0.20662406 0.69461185 6.0899801e-39
0.45133811 0.20177902 0.69547611 6.0896185e-39
0.43899786 0.21904403 0.69442832 5.0747589e-39
0.44264185 0.21390994 0.6954295 5.5360916e-39
0.43489194 0.22509725 0.69526988 5.8130344e-39
0.44782561 0.22959839 0.69939435 3.8740676e-39
0.42921165 0.23660977 0.69458085 6.1814526e-39
0.4307026 0.23189053 0.69629025 6.0896185e-39
0.44048586 0.23054332 0.69805604 5.7194025e-39
0.42948967 0.24117056 0.69431764 6.6417035e-39
0.43212849 0.24575301 0.69579482 5.9948866e-39
0.43733758 0.25167841 0.69653857 5.7164892e-39
0.44217646 0.25447464 0.69908655 5.4384548e-39
0.25769112 0.56102866 0.69573313 4.1326169e-39
0.26483881 0.56104338 0.69504577 4.1326169e-39
0.27491501 0.56106424 0.69503701 4.1326169e-39
0.28488621 0.56108487 0.69506282 4.1326169e-39
0.29489991 0.56110561 0.69492429 4.1326169e-39
0.3006444 0.56111747 0.69499499 4.1326169e-39
0.25605184 -0.55897623 0.7054013 1.1164145e-41
0.26486489 -0.55895805 0.70504123 1.1164145e-41
0.27492496 -0.55893719 0.70511013 1.1164145e-41
0.28501192 -0.55891651 0.70504314 1.1164145e-41
0.29497215 -0.55889589 0.70493704 1.1164145e-41
0.30021018 -0.5588851 0.70528644 1.1164145e-41
0.52661973 -0.33022255 0.70771796 1.3837066e-39
0.52301913 -0.32458761 0.70550698 2.3986082e-39
0.57232225 -0.32462668 0.70882851 4.5202511e-39
0.5227595 -0.31517267 0.70539844 2.8603164e-39
0.48095885 -0.30735233 0.70437348 2.5833652e-39
0.52393472 -0.30506396 0.7049315 2.8599577e-39
0.52648491 -0.29506671 0.70498228 2.8603164e-39
0.5706979 -0.29828709 0.70501941 6.3626335e-39
0.52886742 -0.28597406 0.70466638 7.561883e-39
0.53030699 -0.2812351 0.70658237 1.0605384e-38
0.5315389 -0.27518064 0.70500761 1.0973444e-38
0.53320086 -0.26510787 0.70491093 1.1065279e-38
0.53463143 -0.25510198 0.70479584 1.1340786e-38
0.53601396 -0.24494374 0.70517492 1.124895e-38
0.53708464 -0.23521847 0.70479357 1.1524815e-38
0.53828532 -0.22510526 0.70501351 1.1524815e-38
0.53935516 -0.2157205 0.70434684 7.4689699e-39
0.54025793 -0.21189803 0.70818806 2.8603164e-39
0.53989762 -0.20937304 0.70113498 6.6392176e-39
0.54084879 -0.20479095 0.70504403 3.1365418e-39
0.54202068 -0.19496897 0.70500243 2.8599577e-39
0.57141382 -0.19080503 0.70995402 2.7763856e-39
0.54357982 -0.18480729 0.70514572 2.8599577e-39
0.55670816 -0.18729925 0.7098881 6.9175982e-39
0.56877321 -0.18473855 0.70916325 1.2074431e-38
0.54558444 -0.17490964 0.70503163 2.8599577e-39
0.55060893 -0.17479903 0.70589 2.952519e-39
0.54768842 -0.16514882 0.70485628 2.8599577e-39
0.55039972 -0.16094267 0.70730895 2.8599577e-39
0.55489665 -0.15749355 0.70555586 2.8599577e-39
0.56032944 -0.15484929 0.70906496 2.8599577e-39
0.54809928 -0.1409158 0.70682406 2.7720738e-39
0.53492111 -0.080987819 0.70180386 1.89923e-38
0.52620572 -0.074344739 0.70269877 1.5580701e-38
0.53444874 -0.074911542 0.70568526 1.6871436e-38
0.5429799 -0.072911702 0.70603609 1.871535e-38
0.55068803 -0.07206668 0.70139444 1.8991934e-38
0.51752526 -0.063585453 0.70223749 1.1708845e-38
0.52452964 -0.065345012 0.7052837 1.4659102e-38
0.53514677 -0.064901732 0.70662534 1.9176327e-38
0.54414088 -0.064387918 0.70693541 1.9268524e-38
0.55423653 -0.064270407 0.70378166 1.71473e-38
0.56153387 -0.061479922 0.7026602 1.6502665e-38
0.50675774 -0.053093955 0.70321774 1.2722634e-38
0.51421291 -0.055386189 0.70560676 1.3460562e-38
0.52503222 -0.054828025 0.70640332 1.5212279e-38
0.53533298 -0.055057008 0.70608109 1.7793396e-38
0.54528326 -0.055276811 0.70646113 1.9176328e-38
0.55477291 -0.054236013 0.70689148 1.9453274e-38
0.5642944 -0.054303776 0.70556647 1.5858049e-38
0.57247353 -0.052354679 0.70282185 4.889405e-39
0.63349837 -0.054212071 0.70658958 1.0604028e-38
0.4993495 -0.046387989 0.70121163 1.2631522e-38
0.50455201 -0.044986092 0.70502311 1.3551672e-38
0.51497173 -0.044630602 0.7066434 1.6502658e-38
0.52482164 -0.045251381 0.70575994 1.5027888e-38
0.53548098 -0.044784602 0.70581818 1.5212279e-38
0.54527223 -0.045083053 0.70580274 1.7240579e-38
0.55480182 -0.04495411 0.70634764 1.9452916e-38
0.56454337 -0.045055501 0.7066775 1.6872551e-38
0.57396674 -0.043905664 0.70594263 5.1659933e-39
0.58232802 -0.042585269 0.70328081 4.8894064e-39
0.50615013 -0.036016755 0.70383102 1.281519e-38
0.51526356 -0.034617491 0.70531523 1.8900097e-38
0.52488643 -0.03484609 0.70506924 1.5949843e-38
0.53485984 -0.035101019 0.70536065 1.5027888e-38
0.54532737 -0.035065286 0.70573264 1.5027888e-38
0.55495149 -0.035024967 0.706146 1.4843882e-38
0.56441408 -0.035053805 0.70636344 6.3641609e-39
0.57468802 -0.034904428 0.70630103 4.8894064e-39
0.58400953 -0.034647584 0.70591486 4.8894064e-39
0.59196013 -0.031793009 0.70461243 8.7601389e-39
0.50857866 -0.028862119 0.70110387 1.3460198e-38
0.51513678 -0.025781536 0.70277715 1.5211916e-38
0.52461761 -0.02501487 0.70418763 1.8623151e-38
0.53510737 -0.024861258 0.70553267 1.5857648e-38
0.54502302 -0.025013922 0.7061196 1.4014111e-38
0.55442011 -0.024948876 0.70635605 6.6403765e-39
0.564542 -0.025013609 0.70635134 4.8894064e-39
0.57478493 -0.025244072 0.70634282 4.8894064e-39
0.58486652 -0.02502593 0.70642036 4.889405e-39
0.59394509 -0.024025327 0.70618349 8.2995181e-39
0.60201478 -0.022885945 0.70358324 1.871499e-38
0.51883292 -0.019235941 0.70071191 1.3460199e-38
0.52587032 -0.016251946 0.70227581 1.4935691e-38
0.53491908 -0.014909936 0.70447797 1.6503395e-38
0.54486412 -0.014865852 0.706083 6.0872041e-39
0.55448586 -0.015284763 0.70650429 4.8890463e-39
0.56447017 -0.014822555 0.7064395 4.8894064e-39
0.57448006 -0.014996495 0.70640689 4.8894064e-39
0.58482212 -0.014660929 0.70647269 4.889405e-39
0.59483367 -0.015237225 0.7064454 1.0327811e-38
0.6048066 -0.014506384 0.70495999 1.9821696e-38
0.61423004 -0.013019477 0.70303589 2.0098645e-38
0.62040949 -0.010105472 0.70236826 2.0559625e-38
0.53620297 -0.0063867453 0.70208889 5.072671e-39
0.54476589 -0.0047928081 0.70463729 4.2436586e-39
0.55443287 -0.0051843454 0.70657033 4.8890449e-39
0.56442934 -0.0046355622 0.70648986 4.8894078e-39
0.57476932 -0.0048752823 0.7062034 4.9812419e-39
0.58514529 -0.0051122671 0.70609099 8.3917081e-39
0.59558445 -0.005347928 0.70611829 1.8715711e-38
0.60572189 -0.0055923969 0.70547229 2.0005716e-38
0.6149748 -0.0044738622 0.70559233 1.9452909e-38
0.62272429 -0.003966643 0.70514596 1.9453275e-38
0.51313949 0.0091429707 0.70118695 8.7243721e-39
0.54664648 0.0031135704 0.70232022 3.6897464e-39
0.55465722 0.0051613809 0.70475632 4.0588988e-39
0.56451631 0.004763002 0.70638365 4.9812433e-39
0.57497889 0.0046037375 0.70595109 7.7463485e-39
0.58556968 0.0046266513 0.70574826 1.5027892e-38
0.59493923 0.0051113698 0.70563924 1.539667e-38
0.6042341 0.0049851798 0.70594913 1.7977786e-38
0.61432755 0.0056008305 0.70703959 1.908449e-38
0.62156671 0.0040528201 0.70703542 1.9084127e-38
0.55706668 0.011635329 0.70179468 4.4276575e-39
0.56503862 0.015150419 0.70406133 1.0511061e-38
0.57544899 0.014878277 0.70538491 1.6134242e-38
0.58545047 0.014818265 0.70543236 1.5212279e-38
0.5951094 0.01565538 0.70527363 1.5120083e-38
0.60447055 0.015516523 0.70567864 1.5027888e-38
0.61418265 0.014922426 0.70588416 1.6134235e-38
0.62116706 0.014599651 0.7044698 1.6963996e-38
0.56807673 0.022198306 0.70139265 1.0602497e-38
0.57483494 0.025172854 0.70320058 1.5304475e-38
0.58484799 0.025117636 0.70422423 1.5488866e-38
0.5946303 0.025301127 0.70494509 1.5120083e-38
0.60448396 0.02491462 0.70485872 1.5119723e-38
0.61279863 0.023907008 0.70233059 1.5027888e-38
0.57810342 0.031746525 0.70156538 1.2262019e-38
0.58560568 0.034670372 0.70276785 1.6594852e-38
0.59439254 0.034485247 0.70459706 1.6871799e-38
0.60395414 0.032012038 0.70299482 1.5857647e-38
0.58841717 0.040464014 0.70098078 1.3091777e-38
0.5917291 0.04130451 0.70201111 1.4658739e-38
0.43905297 0.19512416 0.7072441 4.6025522e-39
0.45729342 0.19806573 0.70381308 4.6025522e-39
0.46437275 0.19741769 0.70461398 6.4457417e-39
0.47177154 0.19859186 0.70323205 8.1099644e-39
0.44849887 0.20783716 0.70345294 4.5128887e-39
0.45341918 0.20380022 0.70663482 4.7854973e-39
0.46529904 0.20111896 0.70841134 6.1648164e-39
0.47441235 0.20488636 0.7074787 6.811632e-39
0.43976822 0.21926571 0.70121843 4.9778437e-39
0.44497976 0.21500206 0.70578957 4.4181595e-39
0.45026556 0.21041346 0.70928776 4.6925786e-39
0.47730145 0.21817808 0.70890826 6.7169056e-39
0.4840996 0.21718495 0.70487458 8.2079418e-39
0.43675175 0.2256427 0.70486319 4.3266884e-39
0.44179532 0.22203253 0.7082938 4.7844141e-39
0.46713185 0.2249347 0.70889473 5.7092627e-39
0.47419262 0.22299747 0.709077 6.5325171e-39
0.42976651 0.23739958 0.70112365 3.958266e-39
0.43306535 0.2346444 0.70605659 4.3248821e-39
0.46910036 0.23258795 0.70844251 6.4410404e-39
0.43434662 0.24476582 0.70602673 4.3248821e-39
0.44060892 0.249268 0.70921397 3.9564597e-39
0.45855612 0.24938564 0.70667458 6.2570106e-39
0.46222806 0.2446955 0.70783281 6.3488461e-39
0.43835923 0.25121909 0.70176715 4.3281331e-39
0.44488546 0.25296921 0.70570022 4.3252422e-39
0.45330095 0.25146386 0.70840508 6.1648164e-39
0.4700543 0.26866546 0.70125329 6.1774645e-39
0.43350703 0.27089769 0.70309132 6.0881682e-39
0.25607905 0.56102514 0.70546013 4.1326169e-39
0.26498786 0.56117409 0.70508313 4.1326169e-39
0.27507755 0.56110024 0.70493782 4.1326169e-39
0.28493109 0.56108481 0.70501691 4.1326169e-39
0.29496422 0.56110561 0.70500773 4.1326169e-39
0.3005316 0.56111711 0.70453066 4.1326169e-39
0.25631699 0.5764643 0.70385563 4.1326169e-39
0.25351515 -0.59177792 0.71140432 1.1164145e-41
0.32866052 -0.56636363 0.71776271 1.1164145e-41
0.22202489 -0.55965722 0.71675473 1.1164145e-41
0.24957967 -0.55898958 0.71538496 1.1164145e-41
0.25515431 -0.55897808 0.71477586 1.1164145e-41
0.26502129 -0.5589577 0.71509409 1.1164145e-41
0.27503532 -0.55893713 0.71504337 1.1164145e-41
0.28492334 -0.55891663 0.71506083 1.1164145e-41
0.29496804 -0.55889595 0.71499449 1.1164145e-41
0.30032399 -0.55888492 0.71490645 1.1164145e-41
0.25520486 -0.54942048 0.71509051 1.1164145e-41
0.28601995 -0.54102552 0.71596104 1.1164145e-41
0.53714687 -0.35226947 0.71119821 3.5971514e-39
0.52892542 -0.33119345 0.7120716 3.043993e-39
0.53322732 -0.3335816 0.71608698 2.9517974e-39
0.52469575 -0.32418123 0.71422213 2.3982467e-39
0.53062916 -0.32954282 0.71960008 2.8599577e-39
0.52421522 -0.31467962 0.71546447 2.7799786e-39
0.52547801 -0.30496821 0.71463305 2.9726319e-39
0.51186341 -0.2983979 0.71038163 2.4908066e-39
0.52763832 -0.29497448 0.71508646 2.7893196e-39
0.52939868 -0.28770253 0.71407098 2.8815153e-39
0.53075182 -0.28311586 0.71543568 2.9740696e-39
0.52977186 -0.27563575 0.71010709 2.7763856e-39
0.53241754 -0.27522415 0.71508837 2.9740696e-39
0.53436196 -0.2651343 0.71502709 2.9740696e-39
0.53587443 -0.25474775 0.71501589 3.0662638e-39
0.53708184 -0.24508587 0.71498805 3.0662638e-39
0.5382815 -0.23515685 0.71481901 3.4339646e-39
0.53938806 -0.22552013 0.71443963 3.5258001e-39
0.54020768 -0.22197597 0.71813267 2.7903986e-39
0.55906612 -0.22691761 0.71306312 2.789321e-39
0.53987134 -0.21808927 0.71119517 4.6224338e-39
0.54083073 -0.21459958 0.71558785 2.7896798e-39
0.54188436 -0.20510873 0.7149024 2.7864456e-39
0.5316366 -0.19787502 0.71029818 2.7903986e-39
0.54304916 -0.19482671 0.71536893 2.7868057e-39
0.54419118 -0.18546399 0.71542078 2.7864456e-39
0.54724884 -0.17524272 0.71445692 2.7814163e-39
0.52017033 -0.16054331 0.71934485 2.8599591e-39
0.54935718 -0.16758448 0.71386153 2.7767444e-39
0.55142337 -0.16316693 0.71437562 2.7749493e-39
0.55623788 -0.15833168 0.7136125 3.1383522e-39
0.56378192 -0.15680364 0.71362394 3.5979053e-39
0.56588203 -0.086961061 0.71546471 4.8894064e-39
0.51335716 -0.038317829 0.71741158 1.2631565e-38
0.57864702 -0.031392917 0.71320087 1.2447929e-38
0.55537248 -0.02971039 0.71872562 1.6318625e-38
0.45723021 0.20685132 0.71158147 5.6123685e-39
0.46495989 0.20605095 0.71209192 6.2566519e-39
0.47196203 0.2084783 0.71171176 6.4410404e-39
0.43368083 0.21494062 0.71051687 6.3488461e-39
0.44858757 0.21728016 0.71110272 5.0606381e-39
0.45472425 0.21510932 0.71306598 5.8885925e-39
0.46476895 0.21464375 0.71393049 6.4410404e-39
0.47327143 0.21441607 0.71184933 6.6247114e-39
0.43924046 0.22870953 0.71053123 5.1524736e-39
0.44547102 0.2254687 0.71206194 5.7045627e-39
0.45470691 0.22484605 0.71431667 6.1648164e-39
0.46423066 0.22489682 0.71334738 6.6247114e-39
0.47135198 0.22250946 0.71094877 6.6247114e-39
0.43789729 0.23589712 0.71166891 5.1528323e-39
0.44473153 0.23465627 0.71363634 6.0726222e-39
0.45449853 0.23506139 0.71409285 6.4406816e-39
0.4632948 0.23395906 0.71190923 6.6247114e-39
0.43798426 0.24258557 0.71129531 4.9688026e-39
0.44458264 0.24484988 0.71284115 5.796757e-39
0.45363224 0.24382077 0.71307439 6.3488461e-39
0.46048307 0.24176998 0.7112875 6.5328759e-39
0.44763446 0.25046042 0.71083879 5.2446678e-39
0.39621279 0.26316077 0.71228814 4.4170763e-39
0.24907261 0.5610106 0.71749187 4.1326169e-39
0.25497156 0.56102276 0.71505874 4.1326169e-39
0.26488957 0.56104326 0.71502966 4.1326169e-39
0.27489454 0.561064 0.71491641 4.1326169e-39
0.28492105 0.56108469 0.71501434 4.1326169e-39
0.29489514 0.56110531 0.71505356 4.1326169e-39
0.3006478 0.56111723 0.71494901 4.1326169e-39
0.31773773 0.56949592 0.71072239 4.1326169e-39
0.26930419 0.5715993 0.7134515 4.1326169e-39
0.27629077 0.61018425 0.71069139 4.1326169e-39
0.27227643 -0.56056589 0.72308606 1.1164145e-41
0.2575689 -0.55897319 0.72270888 1.1164145e-41
0.26509756 -0.55895764 0.7249198 1.1164145e-41
0.27497077 -0.55893725 0.7250427 1.1164145e-41
0.28495038 -0.55891663 0.7250548 1.1164145e-41
0.29494715 -0.55889601 0.72496748 1.1164145e-41
0.30025637 -0.55888504 0.72611719 1.1164145e-41
0.50162363 -0.33933282 0.72133988 4.0699845e-39
0.52461559 -0.3356255 0.7249645 3.2287528e-39
0.53572756 -0.33434057 0.72155929 2.8599577e-39
0.5163734 -0.32944444 0.72740388 2.3986096e-39
0.52564985 -0.32300761 0.7254923 1.9372559e-39
0.50910324 -0.31502926 0.72030026 2.8599577e-39
0.52531284 -0.31542921 0.7252053 2.7767444e-39
0.52673554 -0.30501527 0.72496873 2.7903986e-39
0.60963565 -0.3025873 0.72075725 5.0737977e-39
0.51955611 -0.29195309 0.72642744 2.7860868e-39
0.5287208 -0.29568645 0.72466522 2.9740682e-39
0.53020823 -0.2916306 0.72828871 2.7903986e-39
0.52987552 -0.28923449 0.72136801 2.7903986e-39
0.53146607 -0.28468764 0.72519124 2.7903986e-39
0.58473152 -0.28450459 0.72317404 5.1660003e-39
0.53351444 -0.27467608 0.72504693 2.7903986e-39
0.53537655 -0.26476914 0.72522211 2.7903986e-39
0.54155844 -0.2619758 0.72831374 4.704648e-39
0.53677684 -0.25495678 0.72502053 2.7903986e-39
0.53803176 -0.24508381 0.72478336 2.7903986e-39
0.53928006 -0.23542917 0.72464842 2.7903986e-39
0.54149491 -0.23257923 0.72837263 3.3421291e-39
0.53971028 -0.22838597 0.72094274 2.7903986e-39
0.54086739 -0.22443847 0.7255758 2.7903986e-39
0.51878738 -0.21067339 0.72139025 2.7871644e-39
0.54200923 -0.21498561 0.7247532 2.7903986e-39
0.54332286 -0.20501778 0.72515202 2.7903986e-39
0.52474487 -0.19162768 0.72255188 8.3905562e-39
0.54431295 -0.19512324 0.72486496 2.7903986e-39
0.63460428 -0.19793248 0.72931373 1.2349931e-38
0.5452888 -0.18506594 0.72531968 2.7903986e-39
0.54665649 -0.17466529 0.7251088 2.7907588e-39
0.54853284 -0.16702844 0.72357494 2.8836761e-39
0.55271101 -0.16392295 0.72579819 2.9773164e-39
0.55723482 -0.15841566 0.72426838 2.9643754e-39
0.56228215 -0.15620232 0.72749126 3.1415864e-39
0.59793895 -0.10259275 0.7220028 1.9729498e-38
0.5357551 -0.084878892 0.72230875 3.231987e-39
0.57096094 -0.077869453 0.7244308 1.871499e-38
0.41574776 -0.057732943 0.72565103 1.4013373e-38
0.54011649 -0.034655746 0.7228381 5.9031842e-39
0.59099054 0.03476245 0.72899771 1.0510303e-38
0.54866207 0.050654024 0.72512722 1.0410902e-38
0.44159555 0.20723163 0.72050357 6.6247114e-39
0.45155799 0.2506921 0.72158927 5.7049215e-39
0.26733238 0.52918667 0.72032702 4.1326169e-39
0.24611771 0.5331918 0.7225337 4.1326169e-39
0.24745747 0.56104362 0.72556406 4.1326169e-39
0.2548936 0.56102246 0.72498286 4.1326169e-39
0.26493874 0.56104314 0.72506231 4.1326169e-39
0.27497926 0.561064 0.72493941 4.1326169e-39
0.28499579 0.56121719 0.72505814 4.1326169e-39
0.2949889 0.56110549 0.72513384 4.1326169e-39
0.30053723 0.56111687 0.72410417 4.1326169e-39
0.29326785 -0.56928372 0.73627514 1.1164145e-41
0.26719314 -0.55895334 0.73280275 1.1164145e-41
0.27491561 -0.55893731 0.73498446 1.1164145e-41
0.28504086 -0.55891645 0.73505056 1.1164145e-41
0.29504076 -0.55889583 0.73490345 1.1164145e-41
0.30036706 -0.55888486 0.7353301 1.1164145e-41
0.53354949 -0.33253759 0.73734748 2.9521561e-39
0.54035121 -0.3376044 0.73834074 2.9521561e-39
0.48922411 -0.32632831 0.73768026 4.7972066e-39
0.52782238 -0.32429022 0.73472089 1.8450589e-39
0.52741808 -0.31498438 0.73501778 2.775308e-39
0.52811694 -0.30495182 0.73496175 2.7821352e-39
0.52948636 -0.29725307 0.73485303 2.7824939e-39
0.53053188 -0.29254535 0.73576814 2.7796198e-39
0.53214788 -0.28499573 0.73506969 2.7814163e-39
0.53414363 -0.27514222 0.73483592 2.781775e-39
0.54611564 -0.2779516 0.7323637 2.7810562e-39
0.53566235 -0.26515707 0.73532313 2.7806974e-39
0.54392409 -0.26334041 0.73122519 4.7046494e-39
0.53718466 -0.25487843 0.73495859 2.7821352e-39
0.53888601 -0.24454147 0.73477906 2.7828526e-39
0.53986949 -0.23860978 0.73462456 2.7842904e-39
0.54069632 -0.23354007 0.7352857 2.781775e-39
0.58357233 -0.23188914 0.73365998 2.7864456e-39
0.52757955 -0.22640252 0.73789924 2.0298159e-39
0.54177022 -0.2251316 0.73485911 2.7835715e-39
0.54303831 -0.21486321 0.73491305 2.7839316e-39
0.54416323 -0.20472856 0.73525393 2.7835715e-39
0.55619276 -0.20919505 0.7366181 4.612088e-39
0.54532552 -0.19531369 0.7348994 2.7850092e-39
0.57498431 -0.19138604 0.73248053 4.8894078e-39
0.617347 -0.19564556 0.73788232 1.475062e-38
0.54645675 -0.18482897 0.73544425 2.7850092e-39
0.54790425 -0.1755213 0.73457623 2.7878847e-39
0.55106074 -0.17196292 0.73837727 3.0583731e-39
0.56893027 -0.17115939 0.73535484 1.2350292e-38
0.49784938 -0.16932194 0.7362324 2.8599577e-39
0.54946649 -0.16950056 0.733127 2.7903986e-39
0.55373144 -0.16481455 0.73650312 2.9744396e-39
0.55718052 -0.15872148 0.7352916 3.1527254e-39
0.56476772 -0.1570234 0.73337305 3.2316297e-39
0.57121575 -0.15663648 0.73361152 3.32131e-39
0.59604716 -0.14470032 0.73771226 8.8519716e-39
0.52078146 -0.038199872 0.73445678 4.5090085e-39
0.61317205 -0.032835845 0.73945618 1.9729496e-38
0.52838176 -0.017422322 0.7348026 5.2581847e-39
0.43885529 0.0029645711 0.73790973 7.3486404e-39
0.56243885 0.0015614759 0.7380532 1.4013736e-38
0.63832027 0.00098055415 0.73788548 1.825437e-38
0.23225136 0.56818134 0.73635 4.1326169e-39
0.24579972 0.56100345 0.73534429 4.1326169e-39
0.25489917 0.5610224 0.73502147 4.1326169e-39
0.26490918 0.56104302 0.73505646 4.1326169e-39
0.27501056 0.56106389 0.73506188 4.1326169e-39
0.28502333 0.56108463 0.7350567 4.1326169e-39
0.29500857 0.56110537 0.73498857 4.1326169e-39
0.30065107 0.56111699 0.73411602 4.1326169e-39
0.23704347 0.59142125 0.73761123 4.1326169e-39
0.2766946 0.59257412 0.7372461 4.1326169e-39
0.26322094 -0.56251055 0.74053609 1.1164145e-41
0.27699661 -0.55893308 0.74312282 1.1164145e-41
0.28487962 -0.55891681 0.74495679 1.1164145e-41
0.2949371 -0.55889606 0.74502105 1.1164145e-41
0.30028439 -0.55888504 0.74480581 1.1164145e-41
0.53504473 -0.33331794 0.748676 2.8599577e-39
0.52860308 -0.32367966 0.74528658 1.937616e-39
0.53098661 -0.3290832 0.7457341 2.8599577e-39
0.56759501 -0.32720095 0.74900413 5.0737949e-39
0.57199264 -0.32213098 0.74743718 5.0737724e-39
0.52917916 -0.31508395 0.74493581 2.8599577e-39
0.53010505 -0.31071132 0.74855757 2.8599577e-39
0.57414019 -0.31148839 0.74959487 5.0737836e-39
0.50674355 -0.30879167 0.74315596 2.9521561e-39
0.52954412 -0.30598325 0.74230295 2.8599577e-39
0.53049457 -0.30401221 0.74715489 2.8599577e-39
0.56283259 -0.30664423 0.74627638 3.0443559e-39
0.57684344 -0.30329365 0.74884349 4.8890252e-39
0.53137195 -0.29491255 0.74493027 2.8599577e-39
0.55694407 -0.29127139 0.74311882 4.797208e-39
0.53311539 -0.28517297 0.74473554 2.8599577e-39
0.56252217 -0.28013879 0.74207574 5.1660003e-39
0.53471971 -0.27504927 0.74507576 2.8599577e-39
0.53592813 -0.26501513 0.74528122 2.8599577e-39
0.58277839 -0.26183361 0.74908727 5.8113543e-39
0.53718609 -0.25521642 0.74522716 2.8599577e-39
0.5820173 -0.25838029 0.749933 5.8109984e-39
0.53899091 -0.24542689 0.74485397 2.8599577e-39
0.54020512 -0.24103451 0.74894953 2.8599577e-39
0.53986156 -0.23940894 0.74243271 2.8599577e-39
0.54090637 -0.23490077 0.74541032 2.8599577e-39
0.56345123 -0.2307265 0.74028808 3.9667004e-39
0.49146599 -0.2248971 0.74976951 2.7857281e-39
0.5345704 -0.22496474 0.74007022 4.1510945e-39
0.54264534 -0.22499278 0.74523085 2.8599577e-39
0.58840919 -0.22830451 0.74973285 5.7191531e-39
0.54408526 -0.21526845 0.745251 2.8599577e-39
0.55358833 -0.21365151 0.74356574 3.3213114e-39
0.59106028 -0.21660618 0.74911338 6.1801214e-39
0.54553008 -0.20529588 0.74530584 2.8599577e-39
0.55424809 -0.20194091 0.74543065 3.598264e-39
0.59334123 -0.2031391 0.74891043 6.1801214e-39
0.54678071 -0.19479877 0.74507058 2.8599577e-39
0.5481512 -0.18526085 0.74501866 2.8599577e-39
0.55034 -0.1827691 0.74952078 3.0443545e-39
0.54919523 -0.17805159 0.74354017 2.8599591e-39
0.55157655 -0.17404132 0.74599224 2.8603192e-39
0.55610722 -0.16528615 0.74450469 2.8617555e-39
0.56091118 -0.16100016 0.74404687 2.8599577e-39
0.55987281 -0.15958686 0.74985552 2.8599577e-39
0.56350178 -0.15701078 0.74513209 2.953954e-39
0.53737265 -0.098139353 0.74000823 1.1708845e-38
0.49024972 -0.042297523 0.74663234 1.5396306e-38
0.48152703 -0.037740998 0.74996066 1.5765453e-38
0.54719639 -0.0037772995 0.74717647 4.0585317e-39
0.58216935 0.03886446 0.74020255 1.5120443e-38
0.48149204 0.17200322 0.74791962 6.4414019e-39
0.22626637 0.56574434 0.74123377 4.1326169e-39
0.23893584 0.56098914 0.74657637 4.1326169e-39
0.24501581 0.5610019 0.74499631 4.1326169e-39
0.25497618 0.56102246 0.7450335 4.1326169e-39
0.26493281 0.56104302 0.74506122 4.1326169e-39
0.27494007 0.56106359 0.74508363 4.1326169e-39
0.28493729 0.56108427 0.74501729 4.1326169e-39
0.29496154 0.56110513 0.74509323 4.1326169e-39
0.30057648 0.56111676 0.74377388 4.1326169e-39
0.29231599 -0.58963758 0.7559011 1.1164145e-41
0.26341403 -0.55679405 0.75737345 1.1164145e-41
0.28685296 -0.55891275 0.75338989 1.1164145e-41
0.29497015 -0.55889606 0.75509709 1.1164145e-41
0.30025712 -0.5588851 0.75524533 1.1164145e-41
0.28805938 -0.53530407 0.75394309 1.1164145e-41
0.53661901 -0.33312947 0.75547183 2.6755566e-39
0.5435347 -0.33323872 0.75867116 3.59715e-39
0.55600786 -0.33092055 0.75584251 4.612451e-39
0.56345075 -0.33236301 0.75031149 4.8890449e-39
0.5298425 -0.32235199 0.751176 1.568465e-39
0.53465086 -0.32474181 0.75503796 2.6752049e-39
0.54468936 -0.32517436 0.75844741 3.3209442e-39
0.55503571 -0.32454568 0.75642765 5.0738019e-39
0.56216043 -0.32394034 0.75407439 5.1660003e-39
0.52993548 -0.31875008 0.75106245 2.8599577e-39
0.53385144 -0.31468198 0.75549066 3.5979067e-39
0.54461592 -0.31480515 0.75894642 4.8890463e-39
0.55506736 -0.31523755 0.75785536 5.0738019e-39
0.56382066 -0.31468907 0.75540018 5.1660017e-39
0.57118213 -0.31490558 0.75064802 5.1659947e-39
0.53410429 -0.30515507 0.75605792 3.3213128e-39
0.54411501 -0.30817577 0.75974047 4.7972094e-39
0.55531943 -0.30579075 0.75920117 5.0738019e-39
0.5645349 -0.30460456 0.75670409 5.1660017e-39
0.57219392 -0.30392924 0.75293165 5.1660003e-39
0.5347544 -0.29510906 0.75557578 3.1365544e-39
0.55670291 -0.29518941 0.75927627 5.1660003e-39
0.56475997 -0.29492244 0.75683546 5.1660003e-39
0.57232887 -0.29460707 0.75391513 5.2581959e-39
0.52460134 -0.28754443 0.75021958 2.9521589e-39
0.53652686 -0.28508383 0.75518692 3.2287542e-39
0.54094732 -0.28251281 0.75917292 3.4135098e-39
0.55565608 -0.28457189 0.75926536 5.0738033e-39
0.56483734 -0.28502801 0.75670457 5.1660003e-39
0.57316536 -0.28444937 0.7539258 5.1660003e-39
0.53749514 -0.27463725 0.75430167 3.2287528e-39
0.54251814 -0.27383798 0.75900477 3.6901051e-39
0.55476278 -0.27497175 0.75916594 5.0738019e-39
0.56476974 -0.27505204 0.75674015 5.1660003e-39
0.57384008 -0.27450952 0.75384808 5.1660017e-39
0.53792989 -0.26487446 0.75325376 3.0443545e-39
0.54211187 -0.26432973 0.75843287 3.7823021e-39
0.5549255 -0.2651633 0.75902373 5.0738019e-39
0.56459153 -0.26500857 0.75689638 5.0738047e-39
0.57466424 -0.26489693 0.75357729 5.1660017e-39
0.53877211 -0.25537232 0.7526468 2.8599605e-39
0.54312491 -0.25438866 0.75807446 3.6901037e-39
0.5559876 -0.25541413 0.75900328 5.0738047e-39
0.56476957 -0.25522166 0.75686842 5.0738047e-39
0.5741114 -0.25470278 0.75432169 5.1660003e-39
0.58149219 -0.25376999 0.75108904 5.442583e-39
0.53964126 -0.24689981 0.75142795 2.8599577e-39
0.54341918 -0.24451864 0.75691682 3.5057096e-39
0.55706966 -0.24513076 0.75937772 5.1660003e-39
0.56435198 -0.24549514 0.75744241 5.1659989e-39
0.57450491 -0.24521746 0.75480616 5.1659989e-39
0.58182764 -0.2447425 0.75242656 5.1660003e-39
0.59382284 -0.2491519 0.75666463 2.8599577e-39
0.5447337 -0.2348237 0.75629944 3.4135098e-39
0.55616093 -0.23571412 0.75982261 4.9816034e-39
0.56544369 -0.23516768 0.75827986 5.1660003e-39
0.57532644 -0.23495264 0.75556266 5.1660003e-39
0.58226687 -0.23514874 0.75330877 5.1660017e-39
0.59117103 -0.23643948 0.75537699 5.0738047e-39
0.54631227 -0.22494657 0.75554866 3.3209512e-39
0.55261791 -0.22346956 0.75975406 4.612451e-39
0.56624424 -0.22592868 0.7591446 5.1660003e-39
0.5745877 -0.2250341 0.75698006 5.1660003e-39
0.58361137 -0.22371955 0.75364733 5.2581959e-39
0.54735136 -0.2148428 0.75417602 3.0443559e-39
0.55237138 -0.21575256 0.7592212 4.1514574e-39
0.56874919 -0.21567181 0.75962925 1.0880989e-38
0.57495809 -0.21483469 0.75802058 1.1525992e-38
0.58307511 -0.21459723 0.75503498 6.9176976e-39
0.52943629 -0.20072109 0.75847185 2.8822411e-39
0.54837948 -0.20494746 0.75383157 2.9521589e-39
0.55167794 -0.20367205 0.7583822 3.4131511e-39
0.5752092 -0.2051346 0.75854927 1.3450456e-38
0.58389926 -0.20509544 0.75573915 1.1523443e-38
0.54892308 -0.19537693 0.7524792 2.8599577e-39
0.55176955 -0.19452104 0.75755203 3.2291129e-39
0.57596171 -0.19543028 0.75851762 1.1049038e-38
0.58486181 -0.19472773 0.75578111 8.0189487e-39
0.59002906 -0.19953273 0.75252479 5.1660017e-39
0.54909962 -0.18676007 0.75174743 5.6258252e-39
0.5527845 -0.18476465 0.75564814 3.0443545e-39
0.57634717 -0.18463983 0.75829506 1.1235233e-38
0.58561641 -0.18492968 0.75508088 1.6404686e-38
0.55515957 -0.17465878 0.75521684 3.0443545e-39
0.56926674 -0.17169417 0.75961208 1.217026e-38
0.57449228 -0.17506877 0.75829941 1.4378564e-38
0.58432251 -0.17523688 0.75485289 1.5021764e-38
0.5900628 -0.17484377 0.75248796 1.9545848e-38
0.55695486 -0.16562045 0.75406647 3.1365558e-39
0.56495959 -0.16446602 0.7572543 4.1510973e-39
0.57423329 -0.16467473 0.7573722 4.6116943e-39
0.58216578 -0.16589542 0.7554664 6.0872041e-39
0.56535149 -0.15832078 0.75182378 3.6901065e-39
0.57411355 -0.15848573 0.75419182 3.7823021e-39
0.5559594 -0.11875843 0.75408047 3.4142287e-39
0.55524474 -0.09980166 0.75910836 3.5057082e-39
0.58046585 -0.076085091 0.75562179 1.871499e-38
0.59386486 0.049119685 0.75334805 1.5949844e-38
0.24304236 0.52846557 0.7562511 4.1326169e-39
0.33251992 0.52894413 0.75435191 1.4234566e-38
0.28821537 0.55800033 0.75112623 1.1938668e-38
0.23724334 0.56098562 0.75555509 4.1326169e-39
0.244987 0.5610016 0.75501674 4.1326169e-39
0.25495136 0.56102216 0.75498432 4.1326169e-39
0.26495552 0.5610429 0.75500101 4.1326169e-39
0.27496827 0.56105095 0.75517941 4.1326169e-39
0.28496435 0.56108427 0.75499749 4.1326169e-39
0.29489684 0.56110477 0.75504303 4.1326169e-39
0.30059361 0.56111664 0.75451195 4.1326169e-39
0.2731933 0.57602471 0.75662917 4.1326169e-39
0.29650378 -0.55889297 0.76360673 1.1164145e-41
0.30025694 -0.5588851 0.76604426 1.1164145e-41
0.54844791 -0.33291882 0.76025915 3.1358145e-39
0.55042851 -0.33191717 0.76077783 3.2280073e-39
0.54899591 -0.32867756 0.7601856 5.533247e-39
0.55068946 -0.3298673 0.76047611 2.9521645e-39
0.53942132 -0.30220178 0.76012874 4.7972066e-39
0.54522645 -0.30361137 0.76048487 4.7972094e-39
0.55141985 -0.30220252 0.76038361 5.0738019e-39
